-4.570640 -2.027128 2.281301
-4.753489 1.550593 -3.537108
-0.969884 -4.905031 1.882042
4.847356 -1.226027 -3.831685
4.841970 -1.247127 3.054637
-3.515631 -3.555325 2.841219
-3.617863 -3.451242 -4.105575
2.742422 -4.180804 2.515286
-2.723778 -4.192974 0.838616
4.898260 -1.003517 2.907470
1.932993 4.611240 2.122702
-4.623877 1.902567 -2.596948
-4.462603 2.255034 3.455119
-3.299746 -3.756551 -4.049735
4.342771 2.477971 2.358650
4.165568 2.765510 1.211220
4.257476 2.621812 1.448159
4.858702 -1.180259 3.883051
-4.435154 -2.308552 1.749546
-4.461203 -2.257802 2.145434
-2.753680 -4.173398 -1.138429
4.565304 2.039117 2.007799
3.764694 -3.290453 0.649669
0.493444 4.975592 -2.291730
4.926394 -0.854778 -0.889163
-2.030668 -4.569069 -0.176253
-4.993059 0.263360 -2.793966
-4.919817 -0.891853 -3.837863
4.979665 0.450482 3.678135
-3.780417 -3.272376 2.457737
-1.867581 4.638118 -1.355518
-0.919224 4.914776 0.671094
-3.544738 -3.526305 3.972723
4.616515 -1.920361 0.171437
3.886103 -3.146141 -4.071160
2.162097 -4.508363 -0.254814
2.852610 -4.106412 2.047660
3.416367 -3.650813 1.923610
4.926403 -0.854726 -2.673997
-3.577024 -3.493551 0.899245
4.870268 1.131588 -1.571269
4.020290 2.972754 2.214724
-4.518432 2.140975 0.542066
0.150201 -4.997743 -1.426334
-2.035173 4.567064 2.438396
-4.141989 -2.800702 0.678110
-2.553859 -4.298582 -0.585900
4.723520 1.639622 -4.722364
-0.156973 4.997535 -1.135860
-4.931051 -0.827487 4.847008
-0.974907 4.904035 -4.750735
4.695443 -1.718376 1.103490
-4.353927 -2.458316 4.047107
4.934300 -0.807888 4.171076
2.305954 -4.436505 4.365926
-4.999975 -0.015830 -2.666058
4.967060 0.572984 2.384827
-4.786949 -1.443995 1.689478
2.083903 4.545036 1.426927
4.986575 -0.366153 -3.627080
-4.562979 2.044314 -1.345643
-2.335882 4.420821 -2.968638
-4.780441 1.465395 4.440925
4.509302 2.160138 1.978474
1.343019 4.816254 4.782477
1.997328 4.583741 4.610180
4.737978 -1.597362 -2.315283
4.276556 -2.590572 -2.080914
-4.524857 2.127363 2.938651
-4.752457 -1.553755 -4.877141
3.109548 3.915445 -4.949563
-4.906615 0.961837 -1.374724
-4.510471 -2.157696 -4.297176
-4.468608 -2.243110 4.801677
4.926395 0.854772 3.081508
-0.860980 4.925313 1.370442
4.958383 0.643769 4.535873
-2.833035 -4.119941 -3.040765
0.626062 4.960650 -1.439076
4.664125 1.801649 -0.996370
-3.734459 -3.324728 4.138314
-4.072116 -2.901356 -3.248916
-4.049559 2.932758 -3.634057
-2.617143 -4.260348 -4.489143
-4.935008 0.803554 -3.235486
3.154426 3.879381 0.998735
0.892782 4.919648 -0.213339
4.322012 -2.514003 -3.090834
-4.951537 0.694465 -1.038400
-4.876373 1.104982 2.655624
3.077402 -3.940761 0.508857
3.221472 -3.823888 1.118718
-3.950658 -3.064686 2.699025
-4.659058 -1.814712 -0.333918
-0.595335 -4.964431 -1.493667
0.891384 -4.919902 -1.240128
-4.856635 -1.188735 0.571579
1.042247 4.890166 2.012458
-4.938518 -0.781688 -3.699957
4.948017 0.719117 2.270132
4.076114 -2.895737 -1.133404
3.855763 3.183252 -2.125296
4.868639 -1.138577 -1.087449
-1.572271 -4.746363 0.552730
4.999996 0.005928 -3.440815
-0.465602 -4.978274 -0.440337
2.862070 4.099824 4.414859
-4.859655 1.176330 -1.672119
-3.224231 3.821561 -2.060370
3.600732 3.469111 0.114187
-4.991463 0.292063 4.114375
-2.091307 -4.541633 0.273549
-4.984361 -0.395154 3.145298
-4.371496 -2.426938 -2.100496
-0.536552 4.971128 -2.698221
-4.669395 -1.787946 -0.380527
1.154131 4.864975 3.165013
0.228491 4.994776 3.461804
1.859957 4.641181 1.654606
-1.339673 4.817186 -1.826563
1.092842 -4.879108 -1.704311
-1.658919 -4.716777 2.243520
-1.195707 -4.854924 -3.368496
4.953863 -0.677674 -0.009884
-4.985257 -0.383679 2.411070
4.999702 -0.054611 0.332524
4.988347 -0.341173 1.748348
-4.862481 -1.164592 2.169052
-2.455840 4.355325 -3.268248
-0.523906 -4.972476 -3.137989
-2.358521 -4.408784 0.433355
-4.169448 2.759657 -3.758659
4.431855 2.314879 2.028391
-0.758308 -4.942162 -2.865015
-4.277303 -2.589340 1.909978
-2.127058 4.525000 1.870293
4.121683 -2.830500 -1.783003
-3.283223 -3.771001 -3.531088
4.754972 -1.546040 0.772201
-3.036018 -3.972731 2.492724
-4.042399 2.942619 4.658089
4.154741 -2.781749 2.489537
3.643982 -3.423653 4.390051
-0.751843 -4.943150 2.844595
-0.724929 4.947169 2.531317
-3.045327 -3.965600 0.236189
2.638042 -4.247439 3.507014
3.682164 -3.382554 1.498444
0.190026 4.996388 -2.896854
1.582107 -4.743094 -1.508522
-4.934483 0.806769 4.028984
-0.304216 -4.990737 -1.503446
3.786748 3.265049 -3.825853
-2.517939 4.319720 0.056469
-3.646359 3.421121 2.704613
-0.162587 4.997356 -1.086397
3.351049 -3.710859 -2.326893
-3.397474 3.668401 -3.565018
3.752534 -3.304314 -4.526016
-4.977703 0.471668 -2.986286
-4.652051 1.832600 0.011508
-4.793576 1.421841 2.714734
-4.965708 0.584592 -1.810448
3.080884 -3.938039 -1.488675
3.714863 -3.346609 0.957104
4.998404 -0.126341 1.887396
-3.103592 3.920168 -0.938037
-4.841501 -1.248948 -4.833806
-4.882734 -1.076524 -3.892381
4.799702 -1.401022 2.930455
-3.119017 3.907907 3.588046
-4.693519 1.723623 -4.975640
-1.860637 -4.640908 3.956554
4.787170 1.443263 -2.978111
-3.260413 3.790739 2.320479
-4.934344 0.807621 2.566490
0.562742 4.968231 -0.639907
-1.283426 -4.832475 1.147481
-2.476103 -4.343836 -1.239483
-3.272643 3.780186 -2.742351
4.544746 2.084534 2.109384
-4.884874 1.066774 -0.713907
3.218255 -3.826596 -3.408686
-0.008985 -4.999992 3.485944
2.231867 -4.474234 3.581123
4.202795 -2.708600 -3.681312
1.988243 4.587689 -4.986071
3.467987 3.601814 1.490389
1.332932 4.819055 -4.606502
0.249496 -4.993771 -0.293096
4.337008 -2.488044 -4.931219
4.195746 2.719506 -0.041716
-1.355530 4.812747 1.305884
-4.706747 -1.687166 2.809665
4.654494 -1.826387 -1.389588
4.942792 0.754195 -2.201737
-2.910524 4.065569 0.769991
0.824363 -4.931574 -2.910664
-0.155952 -4.997567 4.337270
-0.109456 -4.998802 2.372258
-4.045864 2.937853 1.175385
-0.382213 -4.985370 2.948652
-4.700402 1.704764 0.854000
-2.517356 4.320060 -0.829661
-4.882861 1.075950 4.753501
4.836694 -1.267435 -2.334936
0.148446 -4.997796 0.528379
3.462309 -3.607273 4.236801
2.287759 4.445915 0.093817
-1.143974 -4.867373 1.658475
3.713661 3.347943 3.909894
-0.253350 4.993577 -2.124152
4.389889 2.393506 3.425918
1.479500 4.776094 1.277375
-4.956654 -0.656947 1.262135
4.326270 2.506668 -4.210877
-2.339543 4.418884 -4.491913
-0.008171 -4.999993 -2.713151
-4.478863 -2.222563 -1.117417
0.118979 -4.998584 0.717849
-3.320416 3.738293 -2.564134
2.699287 4.208782 -0.264878
-4.065794 -2.910209 2.585727
-1.805627 4.662586 3.677078
4.670421 -1.785265 -0.595500
4.869081 1.136684 -3.772080
2.025916 -4.571177 4.624459
4.426744 -2.324636 2.587916
-3.264169 3.787506 3.305907
-1.250739 -4.841038 4.105114
-3.056722 3.956824 -2.940408
0.049526 4.999755 1.584565
4.970338 -0.543821 2.888104
4.995385 0.214772 4.431397
3.387115 -3.677969 -2.233313
3.406847 -3.659699 -3.263329
1.931314 4.611944 4.363152
4.485759 2.208612 -4.165521
-4.978941 -0.458419 -2.645085
-2.269154 -4.455440 1.338019
1.836183 4.650638 1.203001
-4.377741 -2.415653 -1.978081
-1.260439 4.838522 2.639060
-4.956429 -0.658647 -2.071923
-2.719635 -4.195663 1.766935
-1.858280 -4.641853 3.452661
4.970713 0.540379 -3.653770
1.546118 -4.754947 4.079378
2.657768 4.235123 0.997906
-3.933610 -3.086538 1.210929
4.999001 0.099968 -3.254462
4.654673 -1.825929 -0.477577
-4.951036 -0.698028 1.528678
-3.713641 3.347965 4.713101
2.520198 -4.318403 -3.592044
3.817226 -3.229363 -4.928761
4.792943 -1.423974 -0.737736
3.076381 -3.941558 -0.180176
-3.893563 3.136904 3.826650
-0.799001 -4.935747 3.336315
-3.516060 3.554901 4.264376
-0.637301 4.959218 0.803902
0.494228 -4.975514 0.506884
4.311682 2.531679 -1.978772
2.838137 -4.116428 -3.898378
-3.382549 3.682168 -4.678404
4.787503 -1.442156 -4.313840
-1.718802 4.695287 1.883074
4.552830 -2.066819 -1.598478
-3.538543 3.532522 -0.068142
2.583160 -4.281038 4.725615
-4.293000 -2.563231 -0.174566
0.875134 4.922818 -3.552116
-4.024990 -2.966387 4.630156
-2.418647 4.376088 4.365105
-0.863132 -4.924937 -4.108524
0.117508 4.998619 4.895160
-4.609972 -1.936017 -3.803820
-2.277208 4.451328 -4.464746
-1.474711 4.777576 3.175866
-0.834217 -4.929917 -3.975954
-4.742688 1.583322 2.606036
-0.620483 -4.961351 0.809309
-4.220137 -2.681500 2.579455
-2.699684 4.208528 -0.923253
0.113465 4.998712 3.548298
0.254916 4.993498 -0.291372
-4.887238 1.055892 -1.678121
-2.072260 4.550356 -4.390387
-4.906000 0.964968 0.636475
2.944464 4.041056 -3.111858
-3.636129 3.431992 4.484274
-4.992673 0.270586 -3.246197
0.450217 4.979689 1.737534
-1.894724 4.627096 -4.138024
-2.492604 4.334389 1.661059
-1.124665 -4.871871 3.521250
2.683192 -4.219061 2.930448
4.434596 -2.309623 -2.176249
4.589784 -1.983401 4.387121
-1.119920 4.872964 0.886060
-3.934085 3.085932 3.506321
-4.904647 0.971823 -1.674196
2.948003 -4.038475 0.611681
1.121225 4.872664 -2.541801
4.995255 0.217777 -2.159609
-1.184605 -4.857645 -3.092589
4.932436 0.819194 -0.801882
-2.806650 4.137961 2.071383
2.481729 -4.340625 -2.045368
-2.319677 4.429345 -0.488565
-4.999921 0.028045 -1.077921
-3.706015 3.356404 1.555051
-0.639188 4.958976 -2.342129
-3.551275 3.519723 2.053861
4.991308 -0.294696 -0.472517
-0.193956 -4.996237 -3.975245
-4.685936 1.744135 2.952333
2.604094 -4.268336 -4.149548
-4.986296 0.369935 0.836038
-0.932440 -4.912286 -4.422311
-2.002399 4.581528 -0.604522
0.711015 4.949188 -3.782236
2.481275 4.340884 3.174135
-4.989354 0.326109 1.158467
-4.888918 1.048082 0.302733
-3.895276 3.134777 -1.977195
2.455175 -4.355699 -0.558746
-2.731142 4.188181 1.756405
-2.680075 -4.221042 0.385712
1.891072 -4.628590 2.138295
2.396112 -4.388467 4.639872
3.839674 -3.202640 4.616427
-1.381219 -4.805438 1.566763
2.576664 -4.284951 1.792882
4.620357 1.911099 4.930861
4.398205 2.378191 0.299580
1.536336 4.758116 -3.398666
2.543701 -4.304601 1.570968
3.870909 3.164817 0.268531
4.820901 -1.326240 3.081918
-4.676860 -1.768327 0.953864
0.460170 -4.978779 -0.354182
4.772278 1.491765 -4.023032
1.183687 -4.857868 -4.404871
-1.809084 -4.661246 1.140484
4.392118 -2.389413 -4.778683
4.999993 -0.008135 2.268619
-4.783202 -1.456359 -3.639302
-4.503244 2.172739 1.103371
4.716374 1.660065 -1.610172
4.474774 2.230785 -0.840776
-0.437326 4.980838 4.921941
-1.632468 4.725997 -2.362573
2.129634 -4.523788 3.608732
-0.074166 4.999450 3.337886
-4.847950 -1.223676 -3.385128
-1.973924 4.593868 2.967012
2.798821 4.143260 -4.175256
0.817219 4.932763 0.447260
-2.852046 4.106804 -0.669796
4.843038 -1.242975 3.024417
2.939836 4.044424 4.894436
-1.174256 -4.860157 2.777899
-3.983911 -3.021333 -1.761812
4.977565 -0.473130 0.269121
-4.970847 0.539144 -3.604026
4.515069 2.148058 4.544612
-2.474113 -4.344970 3.287078
-2.203383 -4.488330 4.326655
3.784422 -3.267744 0.853679
-4.665739 1.797464 4.667079
4.803998 -1.386219 0.816285
1.492768 4.771964 -0.331262
1.428167 -4.791695 4.285140
-3.148998 -3.883788 -0.989616
4.472440 -2.235459 4.422136
-0.155519 -4.997581 -4.588347
-2.757360 4.170967 0.851806
-0.518863 -4.973005 0.179847
1.268871 4.836317 -2.496548
3.801385 -3.247995 -1.147480
4.669725 -1.787083 1.875783
-3.546992 -3.524039 -3.495350
-4.960925 0.623874 4.481463
4.292849 -2.563484 2.025651
1.120809 4.872760 4.411657
3.092952 -3.928568 -0.356215
-2.750257 -4.175654 -0.239870
2.381936 -4.396178 3.092031
-3.067288 -3.948638 0.159205
4.969533 -0.551131 2.047115
-0.297962 4.991114 2.585407
3.825573 3.219470 1.200695
-2.390899 -4.391310 1.036996
-1.042930 -4.890020 1.567821
-4.189153 2.729652 -1.715751
-2.640987 4.245608 -0.450975
-1.450492 4.784984 -0.178362
-4.397744 -2.379044 -3.290560
4.593209 1.975458 2.551169
3.129137 -3.899808 -3.481485
1.818001 -4.657776 0.734951
4.606346 -1.944627 -2.587657
0.864578 4.924683 -4.285988
0.695842 -4.951344 -4.526637
-4.426948 -2.324249 2.692705
-4.966613 -0.576846 -1.015022
4.869388 -1.135369 3.961944
-2.477200 -4.343211 -2.216212
3.011196 -3.991578 4.940929
2.010785 -4.577853 0.995071
0.466226 4.978216 1.880450
-2.097921 4.538582 -0.522117
-2.840666 4.114683 4.718425
-1.294399 4.829548 -2.375782
-4.525875 -2.125195 0.236662
-0.210945 4.995548 -0.521895
-2.750078 4.175772 -1.436454
4.489079 2.201855 4.473086
2.419088 -4.375845 3.394327
4.842988 1.243167 0.049678
4.988527 0.338530 0.559719
3.729857 -3.329890 4.657010
4.956442 0.658545 -2.016771
4.753270 1.551265 -3.202586
-4.515436 -2.147286 4.182656
-1.094549 4.878726 3.658222
-4.000697 2.999071 2.083202
-1.280211 -4.833328 -4.658743
-4.624642 -1.900706 2.653457
2.643271 4.244187 -4.241899
-3.173407 3.863869 4.326141
0.448652 -4.979830 0.608217
-2.940216 4.044148 -1.824483
4.893180 -1.028002 2.816477
-2.094005 4.540390 3.674745
-4.579990 -2.005914 1.075733
-1.547551 4.754480 -1.648447
-1.230188 4.846301 2.732126
-4.580079 2.005711 -3.713664
-4.410981 -2.354411 0.167216
-4.678394 1.764264 -4.242988
-4.111410 -2.845401 0.471785
2.512830 -4.322694 1.151795
-4.901891 -0.985631 1.833012
-4.074940 -2.897390 4.144374
-4.084977 -2.883221 -3.689082
4.989928 -0.317197 -4.120947
-1.262692 4.837934 -4.315995
-2.697593 4.209868 -4.059244
0.100210 -4.998996 -3.709000
-4.884524 1.068375 -1.586916
-2.156798 4.510900 2.924788
2.854425 4.105150 1.016382
4.996796 0.178959 1.036330
-1.907966 -4.621652 0.301692
-0.398398 4.984103 4.514493
4.691277 1.729718 -4.811112
-1.301000 4.827774 1.755793
-3.678429 3.386615 1.985137
-4.996290 0.192575 -3.967121
1.524777 -4.761833 0.510187
2.811828 -4.134444 -2.810957
3.809800 -3.238120 4.715638
-1.400230 4.799933 -3.144021
1.160841 4.863378 -4.249193
-4.269402 -2.602346 -1.329644
-3.898705 3.130511 1.996596
-4.796193 -1.412987 3.539752
-4.967396 0.570064 -0.891975
3.713425 -3.348204 -2.911366
2.491702 4.334907 -0.099407
-1.040533 4.890531 -1.508915
4.542305 -2.089848 -0.880251
2.142633 -4.517646 -0.309057
4.846383 1.229865 2.888204
-4.990388 0.309890 -4.046145
-0.406979 -4.983409 -3.065119
4.997906 -0.144705 -4.401436
-0.806194 -4.934577 -0.285072
2.513510 -4.322299 0.985718
2.051449 -4.559776 -2.753921
-4.800455 1.398440 2.930877
-2.375150 4.399848 -1.868347
0.229360 -4.994737 -0.528480
-0.345016 -4.988082 -2.102417
4.710601 1.676376 -0.638938
4.682313 1.753837 -1.842034
-4.998856 0.106946 -0.100892
1.795327 4.666562 0.570647
4.856745 -1.188289 -2.616714
-4.342261 2.478865 -0.078859
-0.924289 4.913826 -0.264108
0.357670 4.987191 3.539266
-0.366869 4.986523 0.895235
0.822994 4.931803 -3.643018
-4.614071 -1.926226 2.031327
-4.963468 -0.603308 1.083283
-4.765116 1.514488 -2.671457
-0.074604 -4.999443 3.743175
-4.927660 0.847445 -0.552616
-0.109275 -4.998806 -0.948542
-2.057169 4.557198 -0.748136
-3.910366 3.115932 -3.487802
1.622664 -4.729372 0.958935
-0.853745 4.926573 3.078461
1.433666 4.790052 -1.935454
-0.632845 -4.959789 -0.993646
-4.949131 -0.711411 1.590292
4.530611 -2.115080 4.321941
-2.040686 4.564603 -3.221601
3.968378 3.041706 -1.780285
3.037015 -3.971969 3.677362
-2.475123 -4.344395 2.119879
-3.938096 3.080812 3.783511
4.918462 -0.899297 -2.868014
4.705874 1.689600 3.069756
2.858495 -4.102317 -3.844080
2.743448 4.180131 2.863513
4.892358 -1.031905 -2.824423
-4.683953 1.749452 3.441214
-2.751952 -4.174537 3.719490
-2.988458 4.008631 3.166940
-4.785587 1.448501 1.217885
4.394618 -2.384812 0.076682
4.735332 1.605190 -0.053133
-3.143615 -3.888147 -4.184314
4.917410 0.905030 -4.966356
4.971869 -0.529637 -2.400623
-1.857990 -4.641969 3.944106
-4.357721 -2.451584 3.553357
2.021979 4.572921 1.433921
4.810797 -1.362435 -2.267046
-4.469692 -2.240950 2.110664
-4.727650 1.627674 -0.858796
-4.855053 -1.195180 3.387299
4.988009 -0.346074 -4.414952
4.876245 1.105547 -3.939924
3.604994 -3.464682 -0.793334
0.010217 4.999990 4.627521
-4.936199 -0.796201 4.888919
-4.970329 0.543905 1.026850
-4.655384 -1.824115 -2.373526
0.601406 -4.963699 -1.638160
2.286385 4.446622 4.697700
-4.989768 -0.319714 -4.465692
2.940737 -4.043769 -0.882319
4.968626 0.559248 -0.326315
1.808309 -4.661547 -2.275382
-1.122372 -4.872400 0.815752
-3.126796 3.901685 0.336407
-4.097626 -2.865216 -0.531412
3.130159 -3.898988 -2.343809
-3.883201 3.149722 -4.543119
2.793927 4.146562 -4.537737
-4.310176 2.534241 1.358821
-4.540620 -2.093507 -3.229034
-4.979035 0.457399 4.737318
-2.065178 -4.553574 4.828050
0.503113 -4.974623 3.364654
-1.971296 4.594996 4.366752
0.456919 4.979079 3.607914
3.795268 -3.255141 -1.753708
4.986296 -0.369929 3.095696
-4.656556 1.821122 -1.202703
-3.053643 3.959200 4.878440
4.746693 1.571276 -3.930785
-4.259954 2.617784 2.742192
-3.948490 -3.067478 3.405309
0.125458 -4.998426 -0.452912
-4.367369 -2.434356 4.092291
2.611387 4.263878 4.542954
3.426817 3.641006 -3.613336
4.932946 -0.816116 4.195236
-4.998116 0.137239 -1.005978
2.475885 4.343961 -2.523682
-3.520095 -3.550906 -3.272338
4.089627 2.876622 -0.207299
-3.503161 3.567613 -2.890567
2.740463 4.182088 -2.908000
2.113393 -4.531398 -1.084376
-2.808241 -4.136881 -1.467479
-4.316595 -2.523293 -4.580359
-3.572615 3.498060 0.617797
4.575707 2.015664 -2.734497
-3.931859 3.088767 -3.274767
-3.898394 3.130899 4.451106
-4.759807 -1.531091 2.224465
4.906577 0.962032 3.319587
-2.742162 4.180975 1.277237
2.329453 4.424212 3.524649
3.394982 3.670708 3.490390
-4.852593 -1.205131 0.751492
-4.990091 -0.314629 2.417693
4.689364 -1.734896 2.801054
0.366171 -4.986574 -3.979396
4.909774 0.945580 2.164410
-3.832859 -3.210792 -0.210044
-1.439206 -4.788391 4.323436
-1.425614 -4.792455 1.512994
-4.937147 0.790301 -3.379774
4.813610 -1.352464 -1.471787
1.310846 -4.825110 -1.062307
-0.845330 -4.928024 0.307062
1.699206 4.702414 1.880891
-4.953432 -0.680820 -4.378133
-4.978429 -0.463941 -0.515015
2.673493 -4.225214 2.153717
-4.587271 1.989208 1.767138
0.407403 4.983375 -0.909549
-1.955658 -4.601674 2.635159
-0.924716 -4.913746 -0.105939
-0.717625 -4.948233 0.483101
0.587297 -4.965388 2.289169
-4.619132 -1.914058 -0.703235
-4.940269 -0.770548 -3.523075
4.651327 -1.834435 0.085169
1.657518 4.717270 -4.233449
-1.158035 -4.864047 -1.130668
-4.827589 1.301685 0.018223
-3.412344 3.654573 -4.210969
-0.060439 4.999635 -2.889334
-1.271522 -4.835621 2.303806
3.541523 3.529534 -0.600488
-4.994245 0.239822 1.199177
-4.385641 -2.401281 -2.320927
4.848433 1.221760 -2.163268
4.043580 2.940996 -4.859286
4.984620 0.391865 -2.266536
-3.548087 3.522936 3.591225
-2.650458 -4.239702 -0.060100
-3.533489 3.537578 -3.325540
-4.986106 0.372488 -1.182015
-4.214212 -2.690803 -3.305511
-0.181149 -4.996717 -2.746580
1.779933 4.672455 -4.197846
-3.299438 -3.756821 1.587288
-0.992548 -4.900495 -3.045158
-3.132930 3.896761 -4.336942
4.539582 2.095757 3.029334
-1.103483 -4.876713 -3.984799
0.207560 4.995690 2.669254
-4.999810 0.043637 4.170171
0.838095 4.929259 4.317214
-2.626805 -4.254397 -4.645123
-4.923273 -0.872575 -3.253425
0.842706 -4.928473 -3.019979
-3.771257 -3.282929 0.144687
-0.442666 4.980366 3.053838
3.726916 3.333181 -3.808549
-2.826233 -4.124610 0.468563
-1.180769 -4.858579 -1.535260
-2.488217 4.336909 0.874273
-2.987006 4.009713 4.810876
0.358089 -4.987161 2.816398
4.951450 -0.695083 2.385743
4.538658 -2.097757 2.259363
-2.578625 4.283771 3.082234
-4.864574 1.155820 1.705620
4.562537 -2.045301 3.343655
-2.131125 -4.523086 4.685755
2.147399 -4.515382 -3.728224
-4.989802 0.319187 -2.449134
-4.886930 1.057316 0.463430
-4.541392 -2.091831 -4.772964
4.658307 -1.816638 -0.057388
0.118931 4.998585 -1.626527
4.679503 -1.761322 2.003633
-4.024683 2.966804 4.558793
3.188650 3.851300 4.758766
2.035705 4.566826 1.109539
-1.416318 -4.795210 3.301675
-2.077311 -4.548052 0.515628
-4.994375 0.237107 3.489057
3.268622 -3.783663 -0.105798
-3.453942 -3.615285 4.186210
1.935634 4.610132 -0.828362
-3.481216 3.589029 0.717490
4.888132 -1.051742 1.716702
2.195665 -4.492110 2.979606
0.016260 4.999974 3.084303
4.518770 -2.140260 3.130427
-1.773634 4.674850 1.941369
-3.188147 3.851717 1.886181
4.354426 2.457432 -1.994026
-3.816625 -3.230073 2.388625
-3.130281 -3.898890 -3.079951
1.740255 4.687378 -4.820973
-3.830222 -3.213938 -0.478585
4.978902 -0.458841 -2.806796
-3.761863 -3.293689 -0.331354
0.032009 -4.999898 1.410433
0.824988 4.931470 0.737074
1.050781 4.888339 3.366668
4.963404 -0.603839 -4.712661
0.700729 4.950654 3.630297
-4.605060 -1.947672 2.463130
-0.211358 -4.995531 4.724756
-4.655241 1.824480 3.940149
4.834981 -1.273954 -0.795109
4.739248 -1.593590 2.480420
0.946887 4.909522 -3.797554
-3.151691 -3.881604 4.946976
-0.291492 4.991496 -1.097127
-2.509056 4.324886 -3.816291
3.902594 3.125662 -4.774199
4.909438 0.947321 -4.574623
-0.936780 4.911460 2.913460
-2.151807 -4.513283 -2.026249
-3.488944 3.581517 -3.566960
4.128101 2.821132 1.114250
-1.679553 -4.709469 3.522801
-4.849761 -1.216476 4.126601
0.408657 -4.983272 1.065629
4.612208 1.930682 -2.301085
4.446135 -2.287330 -1.411257
-1.554749 -4.752132 -1.229218
-3.564656 -3.506170 3.569072
4.862377 1.165028 -4.818103
0.292780 4.991421 -0.824801
0.141413 -4.998000 -4.467367
-4.842264 -1.245984 -4.767174
4.319499 -2.518318 4.512169
-3.693481 3.370192 -4.265583
4.970238 0.544736 -1.671630
1.551541 4.753180 -2.844717
2.955162 -4.033239 1.041126
4.806684 1.376876 0.747500
-3.987005 -3.017249 2.826710
4.890767 -1.039423 2.560859
-2.234086 -4.473126 2.507573
3.454332 3.614912 -3.047357
4.400318 -2.374280 3.739689
-2.051280 4.559852 -0.491424
-1.327274 4.820617 1.187550
-4.742120 -1.585024 -1.682765
4.370201 2.429269 2.144070
1.518802 4.763742 -2.362150
2.732278 -4.187441 -1.843878
-4.981692 -0.427486 -0.072096
0.694841 4.951484 -4.333370
-2.884194 4.084290 0.948568
-1.554191 -4.752314 2.177385
-4.790753 -1.431324 -4.351005
4.627558 1.893596 -4.511079
4.883604 -1.072572 4.734244
4.151370 -2.786777 3.370344
4.859581 -1.176635 0.607953
-1.987054 4.588204 3.532173
-0.989228 -4.901166 -2.352068
-3.706236 3.356161 -3.228195
-4.365766 2.437229 -3.760592
-4.993446 -0.255919 -0.987379
-3.335476 -3.724862 -0.738799
-4.230249 2.665519 -0.220305
3.876632 3.157804 2.989901
-2.708637 4.202771 -3.292012
3.717693 3.343466 1.013115
1.810663 4.660633 1.469718
-0.513028 4.973611 2.560152
-4.169964 -2.758876 3.854310
-3.376916 3.687335 -0.994517
-4.844635 1.236734 2.411006
-4.757885 -1.537051 1.883943
-3.340610 -3.720259 -4.344271
0.589969 4.965072 -4.730516
-0.442734 4.980360 1.381030
2.011981 4.577328 1.568179
-2.905964 -4.068830 -4.731816
1.023671 4.894088 0.534770
-4.592445 1.977232 -1.314395
2.738226 4.183554 -4.082935
1.242824 -4.843076 -2.012833
-4.259118 2.619144 -2.601333
-4.390572 -2.392253 4.280310
0.842153 4.928568 0.239778
-2.047283 4.561648 -0.763203
-4.883959 -1.070953 -3.303482
3.423850 -3.643796 2.075983
-2.039243 -4.565248 -2.559925
-3.663360 3.402909 -0.217258
0.022586 -4.999949 -0.411157
-0.105606 -4.998885 0.497168
3.155650 -3.878385 3.718767
-3.624745 -3.444013 2.576898
-4.201212 -2.711054 2.725395
-0.689963 4.952166 -2.139900
4.896565 -1.011759 -1.799352
-2.751875 4.174588 2.334144
-2.214138 -4.483034 -2.370123
-4.901622 0.986968 -3.790207
-1.733310 4.689951 -0.311592
0.258069 -4.993336 -0.775709
0.846622 -4.927802 -3.749002
-3.779801 3.273088 -4.488353
-2.993489 4.004875 3.003027
2.613472 -4.262600 -0.706700
-2.002029 -4.581689 -1.128974
-1.800793 4.664455 1.104757
-4.377735 -2.415665 3.889202
1.541773 4.756357 4.104089
-4.907862 -0.955454 3.980746
-4.979252 -0.455024 0.453251
-3.629913 3.438565 3.638240
-3.829520 3.214775 -1.943273
-1.576102 -4.745093 -4.700968
4.422137 -2.333389 2.371419
-0.995005 4.899996 2.250300
-3.240535 -3.807746 0.449607
-2.150753 -4.513786 2.513583
4.076867 2.894678 -3.243202
-2.714580 4.198935 -0.916915
4.739643 1.592416 -2.955006
3.477153 -3.592966 -3.418117
2.302340 -4.438382 2.477766
1.553418 -4.752567 -2.316881
-4.662863 1.804913 -0.643671
1.143245 -4.867545 4.257479
-1.602116 -4.736373 -0.885218
4.128987 -2.819835 4.715319
-2.717998 -4.196723 1.179610
-2.689477 -4.215058 2.479571
2.848229 -4.109452 3.569374
-3.949066 -3.066738 1.874727
3.848921 3.191521 4.246628
3.615960 -3.453236 -4.488815
4.616567 -1.920236 -4.625608
1.328922 -4.820162 2.221006
-4.153618 -2.783426 2.196426
-4.533820 -2.108192 2.960805
4.092683 -2.872273 4.332614
4.754322 -1.548037 -2.039867
2.484976 4.338766 -1.240184
-2.429235 4.370219 -2.113836
-2.515566 -4.321103 0.984346
-4.747447 1.568995 -0.306556
-0.363745 4.986751 -1.597476
-2.894143 -4.077246 -1.700346
-2.380947 -4.396714 2.538742
4.999750 -0.050032 4.914490
4.035171 -2.952523 -3.609042
4.613346 1.927963 -1.780581
3.333041 3.727042 4.741282
-2.756667 -4.171425 0.484731
-2.513304 -4.322419 3.579167
4.417030 2.343042 1.265405
2.393471 4.389908 -0.635484
-0.404288 -4.983628 1.926429
-4.641744 1.858551 -0.004458
0.258157 4.993331 -2.612752
4.041376 -2.944025 -2.453994
2.483595 4.339557 -3.595501
4.687653 1.739513 -2.115182
4.470701 2.238935 3.787236
-4.871118 -1.127924 1.691262
-1.442284 4.787465 0.650113
-0.874245 -4.922976 -0.407271
-3.906134 -3.121236 -3.687822
1.281489 4.832989 0.342232
-2.563415 -4.292890 2.097744
-2.800540 -4.142098 -0.185688
-4.703687 -1.695679 -3.406847
4.690971 -1.730545 0.603246
1.697259 -4.703117 -3.517294
-4.999446 -0.074462 -4.329372
2.085854 4.544141 1.556940
3.011999 -3.990972 -2.809015
-2.285481 -4.447086 -0.187381
-2.934016 4.048648 1.565874
-4.166627 2.763914 0.969666
0.841501 4.928679 -0.277844
-4.510355 2.157939 0.254543
-4.451627 -2.276623 4.917505
0.834501 -4.929869 -0.373837
0.650761 4.957470 0.525957
-4.922404 0.877460 2.308249
3.746957 3.310637 -3.059614
4.681116 -1.757029 2.125960
4.049238 2.933202 -0.271592
-4.705269 -1.691283 2.340229
-0.500942 -4.974842 2.506729
-0.640494 -4.958807 -3.725382
3.237003 3.810750 2.872232
-4.394172 -2.385635 -4.396278
2.383229 -4.395477 -0.233894
-3.104685 -3.919303 4.835131
-4.678624 1.763656 0.131510
3.977434 -3.029855 4.892616
4.043543 2.941047 -4.237624
-3.552945 -3.518036 -4.298147
4.551500 2.069747 -2.487982
4.999369 -0.079415 -2.526912
0.836971 4.929450 1.958452
-4.305241 2.542617 -0.069604
-1.521449 4.762898 -4.306889
4.571537 2.025105 -1.663635
-3.463029 -3.606581 -0.145582
-4.937914 0.785496 -0.271721
-4.953063 0.683493 1.017603
-3.430792 3.637261 3.760482
2.198483 -4.490732 3.980423
4.985509 0.380400 4.426631
-4.024593 2.966926 2.949521
3.375055 -3.689039 3.304557
4.992132 0.280384 2.658975
-1.859057 4.641541 -0.618161
3.614450 3.454816 -1.309110
-0.853536 -4.926609 1.279691
-4.440964 2.297354 -1.706139
0.947356 -4.909431 -3.353303
2.341049 -4.418087 1.717547
-0.366072 -4.986581 1.418273
-2.711030 4.201228 -4.240918
-4.789288 1.436219 3.148999
-4.866886 1.146044 -0.350467
-0.909082 4.916663 -4.310716
-4.968005 0.564738 -3.564619
-4.167550 -2.762521 -2.950814
0.652541 4.957236 2.852558
4.908467 -0.952340 -3.629920
-4.525209 2.126613 4.876277
-3.381336 -3.683282 -3.901921
-4.750848 1.558666 -0.992463
-0.609842 4.962670 4.136509
-2.276356 4.451764 -2.515307
1.018310 4.895206 1.957109
-3.893737 -3.136688 4.358803
-4.477772 2.224761 0.729419
-4.944644 0.741955 -4.453541
-0.410853 4.983091 0.256221
-4.999017 0.099125 -0.067399
1.474483 -4.777646 0.022989
2.942912 -4.042186 -4.284168
-2.542066 -4.305566 -3.079249
-4.965048 0.590168 4.908142
-0.528075 4.972036 4.074605
-0.591050 4.964943 3.426013
-1.893293 4.627682 4.696776
-3.104771 3.919234 2.374457
-4.842743 1.244123 0.819605
3.459178 -3.610275 2.625810
-3.755720 3.300692 -2.477984
-4.819512 -1.331277 -1.874112
-0.438134 -4.980767 -0.595948
-4.935792 -0.798722 -1.082189
-1.846248 4.646651 2.793336
4.527821 -2.121046 3.841840
4.999204 -0.089222 -0.992260
-3.663760 -3.402479 -3.261521
-3.632182 3.436168 -2.075004
-4.296653 2.557102 2.867210
0.617042 -4.961780 2.742428
0.843054 4.928414 1.119212
0.299900 -4.990998 -4.145345
-4.540361 -2.094068 -0.306208
-4.807131 1.375317 -0.881750
3.893471 3.137018 4.786749
3.792134 3.258791 3.012321
0.007076 -4.999995 -1.277028
-3.347284 3.714255 -4.185761
-4.958603 -0.642068 -0.367174
-4.767663 1.506449 -3.402261
-3.614904 3.454341 3.040772
3.924665 -3.097904 -3.573516
-0.341770 -4.988306 4.863416
2.814559 -4.132585 -4.871362
-2.136716 4.520448 2.016206
3.292746 -3.762688 4.933203
-4.996495 -0.187176 3.540090
-1.781511 4.671854 3.266984
-0.113354 4.998715 -1.875676
-0.772315 -4.939993 -0.105606
2.933191 -4.049246 1.057835
0.291745 4.991481 2.161808
-2.920855 -4.058153 0.022130
-0.251977 -4.993647 4.214140
-3.695993 3.367437 -4.024284
-3.272992 3.779884 1.667717
4.887443 1.054940 0.426940
4.701945 -1.700504 2.796710
-4.991115 -0.297949 1.755606
4.664809 1.799876 3.685383
-0.479507 4.976954 0.256236
-0.342790 4.988236 -2.731127
-3.948945 3.066893 -0.138871
3.911250 3.114823 -4.894712
-4.913823 -0.924307 -0.511859
4.037921 2.948761 -4.343750
-1.861570 4.640534 2.109271
-4.482802 2.214607 -2.064275
4.335777 2.490189 -2.064944
3.332411 -3.727604 4.622058
0.795777 4.936268 -1.072512
-1.919764 -4.616764 3.292142
-4.543792 2.086613 4.393860
-0.967188 4.905563 2.997657
3.326827 3.732589 -4.530930
4.363577 2.441147 -0.776065
0.145695 4.997877 -1.801308
