-20.528000 40.693000 3.122000
-20.505000 38.114000 2.585000
-20.517000 37.227000 1.653000
-20.532000 39.768000 2.788000
-20.508000 36.991000 2.274000
-20.515000 37.422000 1.355000
-20.511000 37.115000 2.103000
-20.513000 37.666000 1.251000
-20.523000 40.653000 2.743000
-20.509000 36.902000 3.114000
-20.527000 40.221000 2.743000
-20.506000 38.399000 2.235000
-20.507000 37.840000 2.742000
-20.512000 37.079000 2.749000
-20.515000 37.143000 1.791000
-20.507000 38.162000 1.015000
-20.495000 36.873000 0.874000
-20.504000 38.105000 2.720000
-20.506000 36.923000 2.321000
-20.511000 39.196000 2.176000
-20.505000 38.682000 2.543000
-20.502000 38.335000 2.804000
-20.526000 40.674000 2.947000
-20.513000 37.224000 2.799000
-20.525000 40.753000 2.995000
-20.518000 39.938000 2.266000
-20.527000 40.084000 2.682000
-20.519000 39.672000 2.313000
-20.513000 37.137000 1.955000
-20.513000 40.088000 2.070000
-20.522000 39.264000 2.554000
-20.505000 37.572000 3.070000
-20.523000 39.134000 2.923000
-20.509000 37.703000 2.536000
-20.508000 36.910000 2.954000
-20.513000 37.590000 1.870000
-20.511000 39.907000 2.014000
-20.521000 40.828000 2.789000
-20.503000 38.235000 2.767000
-20.516000 37.184000 1.763000
-20.509000 38.030000 1.404000
-20.521000 37.213000 1.123000
-20.513000 37.638000 1.946000
-20.502000 37.806000 3.113000
-20.511000 37.566000 2.423000
-20.514000 37.011000 1.622000
-20.512000 40.158000 2.069000
-20.507000 37.817000 2.709000
-20.514000 37.133000 2.422000
-20.517000 40.890000 2.582000
-20.501000 38.453000 2.870000
-20.522000 40.820000 2.854000
-20.495000 38.326000 1.632000
-20.508000 36.947000 2.802000
-20.507000 36.957000 2.381000
-20.507000 36.895000 2.067000
-20.506000 38.280000 2.276000
-20.513000 37.660000 1.807000
-20.514000 37.475000 1.174000
-20.514000 37.476000 1.218000
-20.506000 38.206000 1.699000
-20.511000 37.173000 2.908000
-20.521000 37.201000 1.106000
-20.516000 37.337000 1.692000
-20.507000 38.137000 2.044000
-20.512000 40.119000 2.035000
-20.519000 40.004000 2.352000
-20.527000 40.306000 2.783000
-20.525000 39.816000 2.528000
-20.511000 37.942000 1.128000
-20.537000 39.873000 2.995000
-20.524000 40.707000 2.873000
-20.512000 37.575000 2.328000
-20.513000 37.419000 2.316000
-20.504000 38.279000 2.585000
-20.514000 37.338000 2.244000
-20.518000 39.718000 2.280000
-20.533000 40.280000 3.063000
-20.530000 40.070000 2.800000
-20.511000 37.841000 1.416000
-20.529000 40.537000 3.005000
-20.513000 38.878000 2.750000
-20.501000 36.845000 3.021000
-20.509000 39.973000 1.924000
-20.525000 40.346000 2.715000
-20.526000 40.795000 3.115000
-20.514000 40.337000 2.173000
-20.507000 36.974000 2.265000
-20.517000 36.964000 1.387000
-20.510000 37.072000 2.078000
-20.512000 37.614000 0.991000
-20.511000 37.378000 2.823000
-20.514000 37.198000 2.157000
-20.514000 40.138000 2.149000
-20.508000 37.784000 2.562000
-20.511000 37.445000 2.730000
-20.503000 38.313000 1.248000
-20.500000 38.109000 3.047000
-20.522000 40.394000 2.579000
-20.514000 37.546000 1.280000
-20.506000 38.245000 1.114000
-20.521000 41.101000 3.034000
-20.524000 39.817000 2.501000
-20.514000 40.154000 2.157000
-20.516000 37.283000 1.984000
-20.512000 36.922000 1.756000
-20.519000 39.093000 2.758000
-20.501000 38.420000 2.154000
-20.520000 40.614000 2.548000
-20.505000 38.539000 2.380000
-20.522000 37.108000 1.071000
-20.516000 38.962000 2.773000
-20.510000 38.873000 2.577000
-20.508000 36.902000 2.927000
-20.514000 37.507000 1.809000
-20.536000 39.810000 2.957000
-20.515000 37.459000 1.461000
-20.509000 38.076000 1.363000
-20.509000 37.946000 1.881000
-20.512000 37.147000 2.093000
-20.516000 37.366000 1.927000
-20.505000 36.872000 2.582000
-20.510000 40.078000 1.966000
-20.508000 36.945000 2.861000
-20.509000 36.970000 2.622000
-20.507000 38.715000 2.317000
-20.506000 38.230000 1.636000
-20.515000 37.199000 2.445000
-20.517000 37.222000 1.614000
-20.516000 37.360000 1.742000
-20.522000 39.677000 2.408000
-20.532000 39.378000 3.045000
-20.527000 39.955000 2.667000
-20.519000 40.962000 2.779000
-20.494000 38.340000 1.285000
-20.530000 40.548000 3.114000
-20.501000 38.429000 2.804000
-20.506000 36.911000 2.133000
-20.506000 38.198000 1.771000
-20.512000 37.829000 1.105000
-20.508000 38.114000 1.082000
-20.509000 37.759000 2.404000
-20.521000 37.162000 1.131000
-20.508000 36.899000 2.937000
-20.517000 39.044000 3.121000
-20.513000 37.226000 2.687000
-20.520000 41.045000 2.941000
-20.517000 40.180000 2.275000
-20.506000 38.588000 2.279000
-20.505000 38.570000 2.396000
-20.508000 38.144000 1.358000
-20.507000 38.450000 2.185000
-20.520000 40.307000 2.445000
-20.508000 39.915000 1.869000
-20.521000 39.916000 2.381000
-20.500000 38.261000 2.911000
-20.511000 37.535000 2.655000
-20.508000 38.051000 1.671000
-20.504000 36.857000 2.381000
-20.522000 40.769000 2.799000
-20.518000 39.196000 2.435000
-20.514000 36.954000 1.577000
-20.512000 37.836000 1.063000
-20.509000 36.920000 3.103000
-20.529000 40.632000 3.114000
-20.509000 36.975000 2.008000
-20.507000 38.153000 1.745000
-20.501000 38.327000 1.006000
-20.523000 39.807000 2.463000
-20.522000 39.089000 3.053000
-20.509000 37.850000 2.345000
-20.508000 37.878000 2.356000
-20.515000 37.198000 2.243000
-20.513000 40.380000 2.157000
-20.506000 38.699000 2.828000
-20.509000 38.078000 1.217000
-20.522000 40.731000 2.720000
-20.506000 38.230000 1.485000
-20.520000 39.092000 2.849000
-20.509000 38.030000 1.300000
-20.508000 38.673000 2.173000
-20.521000 40.830000 2.743000
-20.524000 39.658000 3.144000
-20.506000 37.256000 3.153000
-20.511000 37.914000 1.081000
-20.513000 37.674000 1.330000
-20.508000 38.006000 1.585000
-20.505000 37.985000 2.788000
-20.512000 37.119000 2.878000
-20.514000 37.542000 1.823000
-20.534000 39.442000 3.017000
-20.530000 40.381000 2.948000
-20.512000 37.567000 0.884000
-20.521000 40.685000 2.654000
-20.509000 36.896000 1.931000
-20.501000 38.278000 2.872000
-20.507000 38.099000 1.945000
-20.514000 37.053000 1.806000
-20.507000 37.825000 2.683000
-20.510000 40.187000 1.963000
-20.511000 37.672000 2.237000
-20.534000 39.729000 2.859000
-20.515000 37.377000 1.006000
-20.511000 37.592000 2.438000
-20.507000 36.975000 2.284000
-20.525000 40.343000 2.686000
-20.501000 38.462000 2.846000
-20.503000 38.588000 2.839000
-20.516000 40.845000 2.502000
-20.507000 38.093000 1.912000
-20.515000 37.212000 2.188000
-20.514000 37.245000 2.599000
-20.516000 39.035000 3.142000
-20.511000 36.866000 1.770000
-20.505000 38.406000 2.387000
-20.514000 40.137000 2.148000
-20.523000 39.938000 2.492000
-20.528000 40.473000 2.910000
-20.531000 39.796000 2.765000
-20.513000 39.650000 2.156000
-20.511000 37.227000 2.909000
-20.515000 37.410000 1.214000
-20.508000 38.042000 2.242000
-20.529000 39.986000 2.730000
-20.517000 37.083000 1.417000
-20.504000 38.364000 2.426000
-20.509000 37.061000 2.095000
-20.507000 38.591000 2.257000
-20.508000 36.965000 2.579000
-20.508000 38.773000 2.165000
-20.514000 37.473000 1.196000
-20.505000 37.739000 2.942000
-20.506000 37.942000 2.590000
-20.504000 36.867000 2.499000
-20.504000 38.310000 1.077000
-20.511000 37.651000 2.236000
-20.525000 40.313000 2.694000
-20.513000 37.170000 2.170000
-20.521000 40.860000 2.805000
-20.511000 40.052000 1.975000
-20.521000 39.234000 2.557000
-20.520000 39.100000 2.788000
-20.508000 37.705000 2.836000
-20.512000 37.072000 1.933000
-20.517000 37.190000 1.592000
-20.510000 37.774000 2.301000
-20.507000 38.094000 1.751000
-20.513000 37.597000 1.254000
-20.510000 37.101000 2.969000
-20.515000 39.507000 2.238000
-20.534000 39.669000 2.824000
-20.509000 38.845000 2.560000
-20.510000 37.011000 3.013000
-20.504000 38.592000 2.625000
-20.515000 37.450000 0.882000
-20.515000 39.943000 2.164000
-20.505000 38.534000 2.356000
-20.528000 40.672000 3.084000
-20.516000 37.347000 1.793000
-20.508000 38.127000 0.981000
-20.505000 38.142000 2.479000
-20.521000 39.098000 2.893000
-20.508000 38.904000 2.235000
-20.510000 40.102000 1.964000
-20.529000 39.732000 2.682000
-20.506000 38.197000 2.364000
-20.508000 36.972000 3.131000
-20.525000 40.718000 2.960000
-20.517000 37.231000 1.469000
-20.518000 39.065000 2.753000
-20.510000 37.042000 2.277000
-20.500000 38.042000 3.067000
-20.528000 40.475000 2.891000
-20.539000 39.750000 3.018000
-20.505000 38.197000 2.447000
-20.513000 40.299000 2.136000
-20.505000 38.287000 1.438000
-20.513000 37.633000 1.501000
-20.529000 40.403000 2.905000
-20.502000 38.135000 2.886000
-20.523000 39.154000 2.908000
-20.510000 37.893000 1.882000
-20.507000 37.999000 2.462000
-20.517000 36.967000 1.386000
-20.506000 38.647000 2.376000
-20.505000 38.520000 2.416000
-20.507000 38.142000 2.156000
-20.514000 37.508000 1.823000
-20.504000 38.708000 3.003000
-20.510000 37.711000 2.488000
-20.503000 38.413000 2.578000
-20.518000 40.506000 2.422000
-20.535000 40.183000 3.128000
-20.509000 37.142000 3.026000
-20.505000 38.151000 2.460000
-20.505000 38.229000 2.418000
-20.536000 40.002000 3.066000
-20.513000 39.367000 2.210000
-20.520000 39.794000 2.323000
-20.511000 37.905000 1.296000
-20.507000 37.830000 2.787000
-20.507000 38.731000 2.738000
-20.509000 37.001000 2.401000
-20.513000 37.474000 0.987000
-20.511000 37.636000 2.382000
-20.512000 37.558000 0.941000
-20.504000 38.359000 2.503000
-20.509000 36.980000 2.633000
-20.531000 40.011000 2.828000
-20.526000 40.257000 2.708000
-20.503000 38.040000 2.852000
-20.503000 38.620000 2.975000
-20.515000 39.144000 2.304000
-20.512000 37.390000 2.701000
-20.515000 37.314000 2.214000
-20.506000 37.931000 2.704000
-20.524000 40.018000 2.529000
-20.518000 40.675000 2.463000
-20.517000 37.231000 1.403000
-20.508000 37.279000 3.047000
-20.512000 37.155000 2.116000
-20.506000 36.855000 2.095000
-20.519000 40.589000 2.488000
-20.505000 37.677000 3.037000
-20.511000 37.709000 2.200000
-20.515000 39.539000 2.233000
-20.523000 40.382000 2.639000
-20.514000 40.298000 2.176000
-20.526000 40.331000 2.723000
-20.515000 38.998000 2.637000
-20.510000 37.907000 1.527000
-20.527000 40.611000 3.001000
-20.516000 37.248000 1.867000
-20.504000 37.668000 3.107000
-20.508000 38.143000 0.962000
-20.515000 40.065000 2.164000
-20.536000 39.624000 2.907000
-20.524000 39.708000 2.472000
-20.513000 37.503000 2.247000
-20.487000 37.876000 0.863000
-20.513000 39.876000 2.151000
-20.503000 38.188000 2.775000
-20.509000 38.802000 2.741000
-20.520000 39.061000 3.067000
-20.512000 39.062000 2.243000
-20.507000 37.865000 2.608000
-20.507000 38.187000 1.344000
-20.507000 36.923000 2.736000
-20.516000 37.335000 1.580000
-20.513000 40.652000 2.201000
-20.527000 40.247000 2.732000
-20.512000 39.208000 2.218000
-20.524000 40.051000 2.539000
-20.509000 37.482000 2.909000
-20.515000 37.263000 2.007000
-20.527000 39.533000 2.581000
-20.519000 39.097000 2.697000
-20.510000 37.677000 2.546000
-20.506000 36.928000 2.293000
-20.529000 39.707000 2.687000
-20.515000 37.155000 1.838000
-20.534000 39.926000 2.916000
-20.505000 38.237000 2.513000
-20.524000 40.802000 2.986000
-20.514000 37.281000 2.400000
-20.533000 39.805000 2.833000
-20.501000 38.376000 2.801000
-20.504000 38.121000 2.666000
-20.504000 38.154000 2.599000
-20.513000 37.556000 1.096000
-20.514000 37.016000 1.612000
-20.521000 39.133000 2.803000
-20.526000 40.678000 3.002000
-20.513000 37.661000 1.417000
-20.518000 37.202000 1.224000
-20.506000 37.991000 2.621000
-20.512000 37.752000 1.308000
-20.512000 37.847000 1.072000
-20.514000 37.564000 1.291000
-20.511000 37.547000 2.528000
-20.507000 37.203000 3.136000
-20.508000 38.892000 2.324000
-20.519000 40.705000 2.582000
-20.529000 39.720000 2.669000
-20.509000 40.263000 1.933000
-20.517000 39.840000 2.208000
-20.509000 37.928000 2.038000
-20.535000 39.846000 2.923000
-20.506000 36.936000 2.246000
-20.513000 37.161000 2.836000
-20.514000 39.072000 2.412000
-20.503000 38.423000 2.558000
-20.501000 38.126000 2.922000
-20.506000 38.409000 2.251000
-20.508000 38.801000 2.787000
-20.514000 37.565000 1.478000
-20.513000 37.744000 1.154000
-20.538000 39.606000 2.958000
-20.517000 39.869000 2.219000
-20.530000 39.402000 3.144000
-20.510000 37.898000 1.504000
-20.502000 38.304000 1.559000
-20.537000 39.547000 2.943000
-20.517000 40.131000 2.265000
-20.506000 36.888000 0.969000
-20.504000 38.428000 2.475000
-20.508000 36.974000 2.364000
-20.504000 37.995000 2.833000
-20.506000 38.335000 2.199000
-20.533000 39.411000 3.050000
-20.512000 39.021000 2.345000
-20.509000 40.219000 1.902000
-20.515000 37.271000 2.283000
-20.517000 37.320000 1.697000
-20.512000 37.110000 2.876000
-20.530000 40.200000 2.885000
-20.512000 37.705000 0.945000
-20.527000 39.731000 2.609000
-20.529000 39.385000 2.807000
-20.507000 38.143000 1.690000
-20.517000 39.675000 2.266000
-20.530000 39.381000 2.894000
-20.526000 39.482000 2.554000
-20.514000 39.121000 2.272000
-20.516000 39.371000 2.286000
-20.505000 38.270000 0.951000
-20.504000 36.886000 2.237000
-20.508000 38.130000 1.101000
-20.528000 40.558000 2.973000
-20.511000 37.704000 2.287000
-20.517000 39.063000 2.674000
-20.521000 40.178000 2.462000
-20.521000 36.922000 1.175000
-20.509000 38.035000 1.272000
-20.523000 39.859000 2.445000
-20.517000 37.350000 0.992000
-20.518000 40.991000 2.690000
-20.531000 39.919000 2.800000
-20.518000 40.950000 2.678000
-20.513000 40.051000 2.057000
-20.506000 36.900000 2.474000
-20.505000 38.289000 1.757000
-20.512000 37.705000 1.869000
-20.516000 37.339000 1.031000
-20.531000 40.427000 3.072000
-20.513000 37.467000 0.991000
-20.512000 37.485000 2.337000
-20.519000 40.486000 2.464000
-20.500000 37.995000 3.133000
-20.507000 37.797000 2.772000
-20.514000 37.540000 1.917000
-20.524000 40.313000 2.610000
-20.513000 37.594000 1.127000
-20.505000 38.684000 2.490000
-20.504000 38.437000 2.460000
-20.508000 38.772000 2.544000
-20.520000 41.037000 2.915000
-20.526000 39.873000 2.604000
-20.534000 40.271000 3.116000
-20.522000 37.203000 0.993000
-20.516000 37.262000 1.853000
-20.501000 38.114000 2.967000
-20.511000 38.980000 2.375000
-20.506000 37.926000 2.738000
-20.509000 37.700000 2.615000
-20.512000 38.914000 2.593000
-20.515000 37.091000 1.739000
-20.512000 37.729000 1.398000
-20.511000 36.891000 1.789000
-20.505000 38.587000 2.693000
-20.511000 37.819000 1.331000
-20.513000 37.127000 2.577000
-20.512000 37.802000 1.213000
-20.507000 37.249000 3.100000
-20.514000 37.277000 2.531000
-20.513000 37.659000 1.373000
-20.515000 37.284000 2.226000
-20.506000 38.297000 2.107000
-20.507000 38.114000 2.297000
-20.533000 40.113000 2.990000
-20.506000 38.247000 1.945000
-20.510000 40.166000 1.954000
-20.513000 39.030000 2.397000
-20.509000 37.742000 2.510000
-20.513000 39.142000 2.251000
-20.533000 40.308000 3.115000
-20.513000 37.614000 2.097000
-20.508000 38.752000 2.767000
-20.513000 39.315000 2.212000
-20.517000 40.452000 2.338000
-20.507000 38.046000 2.319000
-20.513000 37.356000 2.525000
-20.514000 37.538000 1.567000
-20.516000 40.536000 2.315000
-20.509000 37.971000 2.140000
-20.515000 37.190000 2.337000
-20.519000 41.044000 2.857000
-20.513000 40.414000 2.147000
-20.532000 39.562000 2.732000
-20.531000 39.372000 3.015000
-20.532000 39.340000 3.136000
-20.509000 37.616000 2.791000
-20.539000 39.739000 3.043000
-20.511000 37.936000 1.082000
-20.512000 40.243000 2.058000
-20.505000 38.222000 2.461000
-20.507000 38.192000 0.924000
-20.528000 39.865000 2.689000
-20.521000 40.073000 2.447000
-20.521000 41.101000 3.111000
-20.525000 39.282000 2.780000
-20.525000 40.119000 2.635000
-20.514000 37.473000 1.264000
-20.507000 37.855000 2.729000
-20.525000 40.782000 3.044000
-20.520000 40.524000 2.532000
-20.507000 36.895000 2.829000
-20.509000 37.980000 2.181000
-20.523000 40.916000 3.030000
-20.512000 37.369000 2.661000
-20.526000 40.444000 3.151000
-20.511000 37.777000 1.597000
-20.489000 37.255000 0.754000
-20.518000 37.178000 1.365000
-20.496000 38.337000 0.982000
-20.512000 37.874000 1.003000
-20.510000 37.794000 2.303000
-20.504000 37.740000 3.053000
-20.529000 40.462000 2.975000
-20.516000 39.961000 2.174000
-20.524000 39.126000 3.096000
-20.525000 39.441000 3.149000
-20.514000 40.581000 2.242000
-20.504000 38.167000 2.692000
-20.516000 37.134000 1.666000
-20.512000 37.741000 1.418000
-20.522000 37.131000 1.022000
-20.523000 41.010000 3.114000
-20.516000 40.157000 2.235000
-20.507000 38.181000 1.381000
-20.514000 37.588000 1.591000
-20.513000 37.067000 1.851000
-20.512000 37.846000 0.887000
-20.534000 39.481000 2.904000
-20.516000 40.216000 2.234000
-20.536000 39.670000 2.929000
-20.506000 37.202000 3.146000
-20.504000 37.864000 2.952000
-20.513000 36.935000 1.706000
-20.518000 40.185000 2.318000
-20.532000 40.118000 2.930000
-20.512000 39.395000 2.176000
-20.510000 36.999000 2.696000
-20.523000 39.229000 2.707000
-20.524000 40.704000 2.812000
-20.507000 37.638000 2.915000
-20.504000 38.307000 1.158000
-20.511000 37.724000 2.219000
-20.516000 40.145000 2.222000
-20.536000 39.645000 2.903000
-20.527000 39.542000 2.567000
-20.518000 37.210000 1.435000
-20.525000 39.957000 2.575000
-20.520000 39.031000 2.927000
-20.501000 38.433000 2.852000
-20.509000 38.800000 2.584000
-20.512000 37.081000 2.440000
-20.506000 37.920000 2.616000
-20.514000 39.603000 2.186000
-20.512000 37.141000 2.068000
-20.517000 39.029000 2.734000
-20.516000 40.717000 2.383000
-20.512000 37.714000 1.429000
-20.516000 37.354000 1.032000
-20.508000 36.918000 2.918000
-20.511000 37.763000 1.932000
-20.509000 37.984000 1.790000
-20.509000 37.219000 2.991000
-20.510000 38.044000 0.931000
-20.502000 38.479000 2.693000
-20.532000 39.343000 3.128000
-20.514000 37.529000 1.529000
-20.511000 36.899000 1.781000
-20.515000 37.469000 1.615000
-20.512000 37.033000 1.906000
-20.514000 37.557000 1.553000
-20.525000 40.624000 2.858000
-20.502000 38.135000 2.881000
-20.522000 40.716000 2.747000
-20.503000 38.507000 2.778000
-20.506000 37.920000 2.766000
-20.509000 38.070000 1.255000
-20.513000 36.993000 1.754000
-20.525000 40.786000 3.149000
-20.514000 39.932000 2.095000
-20.508000 36.897000 2.928000
-20.510000 39.983000 1.952000
-20.519000 40.510000 2.449000
-20.510000 37.741000 2.359000
-20.515000 37.448000 1.267000
-20.536000 39.690000 2.928000
-20.519000 39.267000 2.412000
-20.524000 40.135000 2.581000
-20.516000 37.239000 1.883000
-20.506000 38.222000 0.859000
-20.516000 39.485000 2.252000
-20.524000 39.919000 2.502000
-20.509000 36.976000 2.830000
-20.507000 37.973000 2.485000
-20.517000 37.297000 1.524000
-20.508000 38.051000 1.785000
-20.520000 37.197000 1.183000
-20.508000 38.028000 1.786000
-20.509000 37.909000 2.245000
-20.526000 40.440000 2.792000
-20.508000 37.794000 2.554000
-20.527000 39.178000 3.148000
-20.535000 40.141000 3.152000
-20.513000 37.382000 2.565000
-20.519000 40.477000 2.450000
-20.511000 37.223000 2.914000
-20.523000 39.991000 2.483000
-20.505000 38.140000 2.473000
-20.506000 38.225000 0.979000
-20.517000 37.287000 1.459000
-20.508000 37.695000 2.756000
-20.538000 39.683000 2.993000
-20.505000 38.117000 2.523000
-20.507000 38.192000 0.915000
-20.506000 38.177000 1.787000
-20.510000 37.496000 2.788000
-20.509000 36.902000 1.940000
-20.526000 40.497000 2.826000
-20.513000 37.638000 2.038000
-20.522000 40.577000 2.637000
-20.507000 36.932000 2.090000
-20.510000 37.867000 1.981000
-20.515000 40.070000 2.148000
-20.522000 37.065000 1.118000
-20.513000 37.271000 2.571000
-20.522000 40.014000 2.454000
-20.505000 38.218000 2.415000
-20.504000 36.882000 2.239000
-20.526000 39.411000 2.563000
-20.515000 37.397000 2.058000
-20.511000 37.786000 2.086000
-20.507000 38.071000 2.359000
-20.503000 38.596000 2.935000
-20.520000 41.056000 2.909000
-20.511000 38.833000 2.686000
-20.506000 37.352000 3.138000
-20.511000 37.584000 2.533000
-20.530000 40.268000 2.901000
-20.509000 36.952000 2.892000
-20.511000 37.778000 1.615000
-20.521000 39.270000 2.459000
-20.525000 40.732000 2.926000
-20.524000 40.000000 2.539000
-20.531000 39.755000 2.746000
-20.511000 37.726000 2.118000
-20.511000 37.034000 2.717000
-20.512000 37.696000 0.920000
-20.508000 36.892000 1.093000
-20.516000 37.334000 1.543000
-20.516000 36.879000 1.443000
-20.514000 37.566000 1.721000
-20.527000 40.277000 2.781000
-20.509000 37.059000 2.102000
-20.511000 37.097000 2.011000
-20.503000 37.898000 2.980000
-20.511000 39.252000 3.154000
-20.506000 38.241000 1.432000
-20.531000 39.324000 3.112000
-20.510000 38.029000 1.099000
-20.518000 39.124000 2.553000
-20.515000 37.447000 1.376000
-20.510000 37.321000 2.903000
-20.519000 39.061000 2.831000
-20.514000 37.415000 2.189000
-20.502000 38.881000 2.146000
-20.508000 37.363000 2.995000
-20.514000 37.380000 2.297000
-20.510000 37.809000 2.069000
-20.516000 37.263000 2.070000
-20.508000 38.013000 2.158000
-20.505000 38.278000 1.414000
-20.505000 37.902000 2.836000
-20.519000 40.503000 2.435000
-20.519000 40.997000 2.766000
-20.512000 37.651000 0.861000
-20.519000 39.467000 2.347000
-20.505000 37.617000 3.082000
-20.527000 40.534000 2.923000
-20.508000 37.687000 2.827000
-20.510000 37.839000 1.599000
-20.508000 38.907000 2.161000
-20.532000 39.769000 2.791000
-20.512000 37.225000 2.851000
-20.515000 37.090000 1.638000
-20.510000 37.567000 2.819000
-20.511000 37.082000 2.316000
-20.508000 38.012000 1.737000
-20.506000 37.647000 2.979000
-20.512000 37.033000 1.900000
-20.516000 39.064000 2.584000
-20.511000 37.648000 2.354000
-20.513000 39.056000 2.354000
-20.511000 37.515000 2.710000
-20.514000 37.535000 1.267000
-20.506000 38.083000 2.464000
-20.515000 37.431000 1.946000
-20.507000 37.264000 3.073000
-20.517000 40.886000 2.565000
-20.516000 36.920000 1.437000
-20.536000 40.136000 3.140000
-20.529000 39.389000 2.777000
-20.514000 40.240000 2.143000
-20.506000 38.223000 1.265000
-20.512000 37.819000 0.941000
-20.503000 38.336000 2.664000
-20.513000 37.721000 1.080000
-20.512000 37.750000 1.623000
-20.516000 38.937000 2.824000
-20.526000 39.499000 2.569000
-20.529000 39.384000 2.838000
-20.512000 37.688000 1.820000
-20.532000 39.999000 2.853000
-20.506000 38.231000 1.515000
-20.513000 37.624000 1.783000
-20.527000 40.616000 2.973000
-20.513000 37.403000 2.355000
-20.508000 37.401000 3.009000
-20.501000 38.017000 3.047000
-20.531000 39.756000 2.747000
-20.503000 38.443000 2.571000
-20.502000 38.278000 2.799000
-20.516000 37.351000 1.907000
-20.505000 38.590000 2.730000
-20.513000 36.908000 0.935000
-20.511000 37.815000 1.729000
-20.505000 36.931000 2.230000
-20.491000 36.873000 1.081000
-20.508000 37.925000 2.327000
-20.525000 40.869000 3.082000
-20.507000 38.185000 2.237000
-20.512000 37.848000 1.112000
-20.527000 40.207000 2.726000
-20.539000 39.831000 3.115000
-20.507000 38.171000 2.120000
-20.506000 36.879000 2.700000
-20.529000 39.441000 2.664000
-20.521000 39.253000 2.529000
-20.514000 37.581000 1.570000
-20.510000 37.025000 2.623000
-20.507000 38.112000 2.230000
-20.518000 39.016000 2.813000
-20.514000 37.254000 2.433000
-20.504000 38.230000 2.601000
-20.508000 38.071000 2.217000
-20.528000 40.328000 2.819000
-20.501000 38.261000 2.899000
-20.524000 39.837000 2.487000
-20.533000 39.526000 2.797000
-20.514000 37.562000 1.512000
-20.509000 37.944000 1.608000
-20.509000 37.919000 1.593000
-20.514000 36.997000 1.648000
-20.524000 40.092000 2.587000
-20.514000 39.699000 2.174000
-20.510000 38.011000 0.955000
-20.505000 38.853000 3.114000
-20.511000 37.961000 1.089000
-20.505000 38.275000 0.981000
-20.530000 40.444000 2.978000
-20.520000 37.012000 1.231000
-20.533000 39.436000 2.950000
-20.514000 37.053000 1.717000
-20.507000 39.779000 2.135000
-20.516000 40.371000 2.292000
-20.517000 39.347000 2.320000
-20.529000 40.094000 2.756000
-20.513000 36.926000 1.653000
-20.521000 39.659000 2.375000
-20.507000 38.132000 1.607000
-20.529000 40.652000 3.147000
-20.504000 38.476000 2.552000
-20.508000 38.819000 2.176000
-20.519000 39.902000 2.315000
-20.513000 38.960000 3.019000
-20.512000 37.670000 1.952000
-20.514000 37.484000 2.016000
-20.512000 37.554000 2.295000
-20.513000 37.300000 2.590000
-20.517000 39.372000 2.319000
-20.506000 38.218000 1.308000
-20.505000 38.285000 2.314000
-20.510000 37.873000 1.788000
-20.524000 40.307000 2.652000
-20.506000 37.661000 2.978000
-20.506000 38.179000 1.763000
-20.506000 37.890000 2.810000
-20.523000 40.429000 2.621000
-20.511000 37.966000 1.051000
-20.517000 37.352000 1.004000
-20.520000 36.951000 0.865000
-20.505000 37.564000 3.068000
-20.512000 40.179000 2.039000
-20.539000 39.596000 2.998000
-20.495000 36.873000 1.138000
-20.519000 40.150000 2.359000
-20.512000 37.618000 2.187000
-20.513000 37.197000 2.774000
-20.531000 40.471000 3.112000
-20.512000 36.925000 1.706000
-20.507000 38.547000 2.189000
-20.513000 37.373000 2.547000
-20.507000 38.770000 2.302000
-20.530000 39.367000 2.966000
-20.514000 37.309000 2.331000
-20.521000 37.312000 0.932000
-20.509000 37.598000 2.752000
-20.501000 38.447000 2.850000
-20.506000 37.471000 3.065000
-20.517000 39.031000 2.730000
-20.501000 38.401000 2.810000
-20.508000 37.910000 2.377000
-20.512000 37.888000 1.105000
-20.505000 37.695000 3.021000
-20.528000 40.088000 2.719000
-20.517000 37.211000 1.623000
-20.509000 37.938000 2.203000
-20.513000 37.367000 2.371000
-20.508000 36.946000 2.578000
-20.507000 37.552000 3.006000
-20.511000 37.598000 2.372000
-20.525000 39.300000 2.678000
-20.516000 37.355000 1.583000
-20.505000 38.272000 1.551000
-20.502000 38.326000 2.786000
-20.513000 40.191000 2.088000
-20.517000 40.724000 2.464000
-20.507000 37.722000 2.834000
-20.527000 39.649000 2.554000
-20.531000 40.327000 2.974000
-20.529000 40.498000 3.002000
-20.533000 39.506000 2.803000
-20.514000 37.555000 1.466000
-20.508000 37.891000 2.352000
-20.511000 37.554000 2.491000
-20.510000 37.673000 2.549000
-20.506000 38.675000 2.638000
-20.505000 37.720000 2.986000
-20.522000 40.008000 2.476000
-20.506000 38.211000 1.812000
-20.508000 36.929000 2.822000
-20.536000 40.075000 3.100000
-20.507000 36.933000 2.617000
-20.509000 37.950000 1.610000
-20.513000 37.518000 0.832000
-20.508000 38.011000 2.163000
-20.533000 40.172000 2.993000
-20.516000 38.984000 2.990000
-20.506000 38.263000 2.030000
-20.506000 37.629000 2.962000
-20.507000 38.186000 1.385000
-20.509000 38.083000 0.890000
-20.513000 37.611000 1.352000
-20.516000 37.319000 2.073000
-20.519000 39.089000 2.743000
-20.527000 39.377000 2.708000
-20.510000 37.255000 2.948000
-20.506000 37.375000 3.124000
-20.512000 37.695000 0.844000
-20.507000 37.972000 2.372000
-20.502000 38.014000 2.980000
-20.506000 38.569000 2.281000
-20.514000 37.053000 1.776000
-20.523000 39.697000 2.426000
-20.513000 37.153000 2.143000
-20.523000 37.258000 0.959000
-20.518000 40.894000 2.639000
-20.537000 39.476000 3.120000
-20.515000 37.480000 1.728000
-20.507000 38.088000 2.282000
-20.509000 38.886000 2.403000
-20.511000 37.569000 2.478000
-20.510000 37.622000 2.572000
-20.525000 40.206000 2.631000
-20.513000 37.596000 1.973000
-20.515000 37.493000 1.936000
-20.512000 38.877000 2.824000
-20.511000 37.529000 2.617000
-20.514000 37.075000 1.826000
-20.505000 38.053000 2.617000
-20.507000 38.168000 2.188000
-20.538000 39.870000 3.091000
-20.501000 36.884000 1.073000
-20.503000 38.613000 2.874000
-20.528000 39.430000 2.659000
-20.518000 40.315000 2.357000
-20.506000 38.167000 2.348000
-20.524000 39.223000 2.802000
-20.514000 37.403000 2.148000
-20.515000 37.086000 1.628000
-20.491000 37.821000 0.840000
-20.511000 37.827000 1.748000
-20.516000 37.309000 1.227000
-20.509000 37.907000 1.935000
-20.540000 39.651000 3.033000
-20.513000 39.141000 2.259000
-20.510000 37.860000 1.858000
-20.520000 39.048000 3.013000
-20.527000 39.897000 2.638000
-20.509000 37.157000 3.042000
-20.510000 37.778000 2.172000
-20.513000 37.655000 1.709000
-20.513000 39.990000 2.054000
-20.528000 40.277000 2.832000
-20.535000 39.443000 3.049000
-20.522000 39.754000 2.402000
-20.514000 38.958000 2.649000
-20.515000 39.437000 2.239000
-20.532000 39.813000 2.804000
-20.497000 38.366000 0.846000
-20.530000 39.323000 3.041000
-20.515000 40.769000 2.387000
-20.514000 37.571000 1.970000
-20.508000 37.782000 2.697000
-20.511000 37.797000 1.394000
-20.506000 38.204000 1.735000
-20.503000 37.893000 2.983000
-20.540000 39.747000 3.087000
-20.507000 38.163000 2.105000
-20.514000 39.400000 2.223000
-20.506000 37.874000 2.702000
-20.509000 38.073000 0.942000
-20.528000 39.709000 2.610000
-20.509000 37.864000 2.209000
-20.516000 39.887000 2.198000
-20.509000 37.592000 2.838000
-20.512000 37.743000 1.715000
-20.539000 39.631000 2.996000
-20.516000 37.173000 1.657000
-20.509000 37.670000 2.754000
-20.540000 39.605000 3.125000
-20.511000 38.855000 2.684000
-20.505000 38.617000 2.783000
-20.509000 37.000000 2.463000
-20.518000 39.162000 2.485000
-20.519000 40.184000 2.370000
-20.513000 37.593000 1.243000
-20.530000 39.514000 2.674000
-20.509000 37.859000 2.251000
-20.533000 40.067000 2.946000
-20.524000 40.846000 3.038000
-20.523000 40.599000 2.693000
-20.520000 39.116000 2.784000
-20.506000 38.011000 2.531000
-20.508000 37.795000 2.610000
-20.502000 38.310000 2.783000
-20.528000 39.383000 2.755000
-20.514000 37.542000 1.990000
-20.508000 37.033000 3.101000
-20.506000 37.720000 2.941000
-20.513000 37.500000 0.963000
-20.508000 38.820000 2.180000
-20.520000 37.337000 0.916000
-20.516000 39.053000 2.545000
-20.511000 36.892000 1.764000
-20.512000 37.044000 2.897000
-20.507000 36.955000 2.403000
-20.520000 40.952000 2.796000
-20.515000 37.421000 1.575000
-20.508000 36.919000 2.871000
-20.503000 38.452000 2.593000
-20.522000 37.316000 0.886000
-20.513000 37.697000 1.296000
-20.515000 37.450000 2.030000
-20.521000 40.849000 2.808000
-20.526000 40.371000 2.778000
-20.519000 40.595000 2.492000
-20.513000 37.598000 2.115000
-20.509000 40.158000 1.897000
-20.513000 37.695000 1.286000
-20.520000 39.219000 2.522000
-20.511000 36.887000 1.754000
-20.496000 38.332000 1.289000
-20.515000 40.211000 2.215000
-20.505000 37.388000 3.154000
-20.508000 38.124000 1.034000
-20.510000 37.052000 2.061000
-20.503000 38.487000 2.651000
-20.520000 39.952000 2.377000
-20.533000 40.166000 3.001000
-20.515000 37.461000 1.553000
-20.508000 36.982000 2.385000
-20.515000 37.428000 1.338000
-20.524000 39.253000 2.706000
-20.514000 36.996000 1.662000
-20.506000 38.230000 2.318000
-20.509000 38.082000 0.953000
-20.526000 39.323000 2.764000
-20.519000 40.269000 2.377000
-20.514000 37.498000 2.068000
-20.502000 38.529000 2.937000
-20.514000 37.184000 2.627000
-20.514000 37.298000 2.393000
-20.526000 39.166000 3.135000
-20.506000 37.345000 3.128000
-20.519000 39.632000 2.317000
-20.509000 37.873000 2.221000
-20.516000 37.351000 1.455000
-20.526000 39.350000 2.696000
-20.527000 40.717000 3.053000
-20.526000 39.642000 2.548000
-20.507000 38.166000 1.270000
-20.521000 39.483000 2.402000
-20.502000 38.529000 2.935000
-20.505000 37.637000 3.022000
-20.521000 40.717000 2.650000
-20.503000 38.334000 2.713000
-20.508000 37.291000 3.027000
-20.520000 39.944000 2.351000
-20.512000 37.617000 2.236000
-20.505000 38.655000 2.857000
-20.509000 38.044000 1.252000
-20.505000 38.278000 0.965000
-20.518000 39.141000 2.495000
-20.511000 37.821000 1.779000
-20.521000 36.904000 1.206000
-20.531000 40.359000 2.988000
-20.508000 38.809000 2.483000
-20.511000 37.013000 1.924000
-20.507000 38.831000 2.311000
-20.531000 39.781000 2.743000
-20.515000 39.369000 2.258000
-20.512000 40.215000 2.063000
-20.517000 40.792000 2.470000
-20.524000 40.475000 2.705000
-20.511000 39.079000 2.213000
-20.513000 37.414000 2.441000
-20.520000 36.929000 1.248000
-20.508000 38.152000 1.401000
-20.505000 37.993000 2.767000
-20.511000 40.385000 2.041000
-20.513000 40.478000 2.167000
-20.528000 39.812000 2.669000
-20.514000 37.411000 1.042000
-20.505000 38.278000 0.831000
-20.509000 37.920000 1.850000
-20.528000 40.632000 3.057000
-20.510000 37.972000 1.331000
-20.509000 38.005000 1.457000
-20.526000 40.714000 3.014000
-20.512000 37.609000 0.885000
-20.511000 37.931000 1.116000
-20.508000 38.765000 2.194000
-20.516000 39.132000 2.403000
-20.515000 37.361000 2.062000
-20.508000 38.070000 2.075000
-20.507000 37.554000 2.959000
-20.512000 37.750000 1.761000
-20.493000 38.248000 0.087000
-20.503000 38.023000 2.881000
-20.515000 37.041000 1.614000
-20.508000 38.748000 2.685000
-20.511000 37.786000 2.096000
-20.527000 39.347000 2.780000
-20.513000 37.628000 1.445000
-20.514000 39.083000 2.333000
-20.510000 37.901000 1.559000
-20.498000 38.326000 2.111000
-20.514000 40.258000 2.150000
-20.518000 37.180000 1.369000
-20.521000 40.841000 2.806000
-20.532000 40.218000 2.998000
-20.515000 37.498000 1.551000
-20.512000 37.141000 2.176000
-20.512000 37.744000 1.632000
-20.528000 40.212000 2.804000
-20.524000 40.828000 2.962000
-20.506000 36.918000 2.502000
-20.508000 38.109000 0.909000
-20.502000 38.469000 2.157000
-20.507000 38.192000 1.337000
-20.515000 39.065000 2.464000
-20.511000 37.102000 2.208000
-20.529000 40.532000 3.060000
-20.516000 37.421000 1.698000
-20.511000 37.889000 1.150000
-20.511000 37.587000 2.478000
-20.507000 38.487000 2.214000
-20.504000 38.895000 2.151000
-20.510000 37.758000 2.386000
-20.523000 40.968000 3.036000
-20.511000 37.789000 1.990000
-20.512000 37.496000 2.484000
-20.518000 40.619000 2.450000
-20.503000 38.239000 2.714000
-20.513000 37.759000 1.116000
-20.532000 39.652000 2.764000
-20.525000 39.457000 2.535000
-20.510000 37.857000 1.761000
-20.515000 37.412000 1.117000
-20.515000 39.378000 2.260000
-20.527000 39.297000 2.898000
-20.510000 37.013000 1.972000
-20.507000 38.752000 2.330000
-20.517000 37.226000 1.258000
-20.537000 39.506000 3.072000
-20.516000 37.362000 1.951000
-20.506000 38.661000 2.312000
-20.513000 37.502000 1.038000
-20.535000 39.961000 2.957000
-20.522000 40.660000 2.683000
-20.529000 39.846000 2.705000
-20.511000 37.792000 2.099000
-20.504000 38.060000 2.788000
-20.507000 38.846000 2.335000
-20.520000 39.125000 2.692000
-20.516000 37.339000 1.688000
-20.511000 37.373000 2.839000
-20.511000 37.981000 0.951000
-20.512000 37.758000 0.931000
-20.511000 37.999000 1.073000
-20.502000 36.885000 1.097000
-20.517000 39.312000 2.333000
-20.526000 39.888000 2.607000
-20.512000 37.459000 2.468000
-20.510000 40.380000 1.990000
-20.511000 37.496000 2.621000
-20.533000 39.479000 2.866000
-20.513000 37.689000 1.258000
-20.506000 38.220000 1.323000
-20.505000 38.273000 0.926000
-20.520000 41.113000 3.011000
-20.502000 38.304000 1.861000
-20.506000 37.867000 2.828000
-20.510000 37.010000 2.754000
-20.520000 40.872000 2.727000
-20.507000 38.060000 2.351000
-20.521000 39.843000 2.372000
-20.509000 37.685000 2.728000
-20.507000 39.424000 2.145000
-20.528000 40.195000 2.761000
-20.507000 37.178000 3.151000
-20.512000 40.327000 2.096000
-20.504000 38.438000 2.506000
-20.501000 38.105000 2.966000
-20.536000 39.800000 2.938000
-20.512000 37.734000 1.508000
-20.502000 38.014000 2.969000
-20.524000 40.664000 2.799000
-20.509000 37.594000 2.835000
-20.510000 37.581000 2.789000
-20.530000 39.997000 2.770000
-20.511000 39.032000 2.282000
-20.505000 38.436000 2.339000
-20.510000 37.514000 2.757000
-20.513000 39.426000 2.181000
-20.509000 39.949000 1.911000
-20.505000 38.500000 2.398000
-20.515000 37.387000 0.996000
-20.514000 37.344000 2.222000
-20.517000 39.084000 2.609000
-20.517000 37.118000 1.496000
-20.507000 37.823000 2.746000
-20.508000 38.092000 2.126000
-20.514000 40.180000 2.136000
-20.513000 37.613000 1.774000
-20.514000 37.509000 1.221000
-20.506000 38.061000 2.465000
-20.521000 39.798000 2.345000
-20.505000 38.252000 1.704000
-20.507000 36.935000 2.441000
-20.514000 37.508000 1.695000
-20.525000 40.892000 3.110000
-20.517000 40.931000 2.606000
-20.514000 37.535000 1.643000
-20.517000 37.374000 0.933000
-20.512000 37.064000 2.892000
-20.509000 38.086000 0.848000
-20.504000 38.722000 2.981000
-20.507000 38.145000 1.506000
-20.510000 39.000000 2.233000
-20.510000 37.723000 2.441000
-20.512000 37.135000 2.011000
-20.513000 37.723000 1.176000
-20.513000 40.435000 2.155000
-20.522000 40.908000 2.881000
-20.512000 36.931000 1.798000
-20.518000 36.922000 1.365000
-20.505000 38.398000 2.338000
-20.514000 39.902000 2.146000
-20.507000 37.967000 2.375000
-20.507000 36.881000 2.932000
-20.526000 39.369000 2.605000
-20.535000 40.093000 3.037000
-20.508000 38.832000 2.231000
-20.514000 36.999000 1.547000
-20.517000 40.212000 2.279000
-20.520000 39.168000 2.642000
-20.510000 37.064000 2.038000
-20.512000 37.570000 2.209000
-20.516000 38.988000 2.727000
-20.512000 37.697000 1.948000
-20.515000 37.500000 1.676000
-20.507000 39.937000 1.839000
-20.525000 40.407000 2.704000
-20.512000 37.067000 2.605000
-20.509000 37.477000 2.923000
-20.514000 37.607000 1.330000
-20.509000 37.747000 2.449000
-20.505000 38.485000 2.444000
-20.512000 38.971000 3.072000
-20.530000 40.097000 2.830000
-20.502000 37.836000 3.119000
-20.512000 37.724000 1.572000
-20.510000 38.015000 1.274000
-20.530000 39.675000 2.687000
-20.514000 37.146000 2.636000
-20.506000 38.464000 2.304000
-20.519000 40.667000 2.555000
-20.505000 36.882000 2.606000
-20.520000 36.949000 1.252000
-20.519000 36.998000 1.265000
-20.508000 37.489000 2.955000
-20.518000 40.347000 2.343000
-20.505000 38.263000 1.637000
-20.510000 37.854000 1.806000
-20.508000 37.133000 3.109000
-20.516000 37.347000 1.288000
-20.534000 39.452000 2.984000
-20.507000 40.075000 1.834000
-20.525000 39.290000 2.735000
-20.502000 38.461000 2.690000
-20.510000 38.034000 1.127000
-20.511000 39.015000 2.287000
-20.518000 40.027000 2.312000
-20.510000 37.061000 2.225000
-20.509000 39.348000 2.154000
-20.505000 38.784000 3.058000
-20.509000 37.903000 2.173000
-20.511000 37.214000 2.893000
-20.507000 38.107000 2.065000
-20.524000 40.464000 2.698000
-20.507000 38.100000 2.026000
-20.506000 37.366000 3.131000
-20.523000 39.714000 2.439000
-20.510000 37.374000 2.905000
-20.509000 38.014000 1.326000
-20.509000 37.704000 2.677000
-20.523000 39.498000 2.479000
-20.512000 37.823000 1.142000
-20.521000 40.781000 2.686000
-20.505000 37.974000 2.823000
-20.514000 37.227000 2.591000
-20.528000 40.261000 2.824000
-20.512000 37.808000 0.908000
-20.514000 37.539000 1.230000
-20.506000 38.410000 2.246000
-20.508000 37.958000 2.255000
-20.503000 38.131000 2.797000
-20.508000 37.525000 2.940000
-20.540000 39.778000 3.116000
-20.528000 39.727000 2.623000
-20.508000 38.029000 2.042000
-20.513000 37.665000 1.651000
-20.512000 37.095000 2.365000
-20.509000 37.441000 2.901000
-20.542000 39.633000 3.117000
-20.507000 38.117000 1.774000
-20.513000 37.569000 1.055000
-20.507000 38.077000 1.875000
-20.504000 37.863000 2.938000
-20.508000 38.058000 1.660000
-20.507000 37.885000 2.647000
-20.505000 38.210000 2.533000
-20.513000 37.746000 1.059000
-20.509000 37.007000 2.330000
-20.519000 40.736000 2.579000
-20.529000 39.688000 2.666000
-20.522000 39.277000 2.498000
-20.509000 37.891000 2.060000
-20.511000 40.481000 2.080000
-20.512000 37.680000 2.131000
-20.514000 37.422000 2.234000
-20.519000 39.181000 2.489000
-20.514000 36.919000 0.853000
-20.521000 39.540000 2.404000
-20.511000 37.106000 2.103000
-20.517000 37.186000 1.542000
-20.501000 38.288000 2.878000
-20.519000 40.072000 2.341000
-20.508000 37.966000 2.269000
-20.536000 39.732000 2.914000
-20.522000 40.952000 2.994000
-20.505000 38.609000 2.469000
-20.528000 40.620000 3.058000
-20.504000 38.528000 2.554000
-20.512000 37.696000 1.540000
-20.509000 37.042000 2.172000
-20.519000 40.677000 2.521000
-20.520000 39.631000 2.337000
-20.517000 39.058000 2.663000
-20.515000 40.369000 2.214000
-20.509000 37.857000 2.311000
-20.515000 37.458000 1.411000
-20.505000 38.632000 2.504000
-20.521000 40.812000 2.733000
-20.513000 38.940000 2.615000
-20.523000 40.883000 2.964000
-20.506000 38.213000 1.185000
-20.526000 40.164000 2.664000
-20.512000 37.687000 1.903000
-20.516000 40.813000 2.480000
-20.507000 38.061000 1.966000
-20.506000 38.225000 1.105000
-20.522000 40.952000 2.929000
-20.511000 37.058000 2.620000
-20.517000 39.772000 2.233000
-20.512000 39.859000 2.147000
-20.508000 36.987000 2.368000
-20.517000 37.270000 1.587000
-20.510000 36.899000 0.942000
-20.507000 38.562000 2.228000
-20.511000 36.904000 1.835000
-20.514000 37.547000 1.715000
-20.511000 37.751000 2.043000
-20.513000 37.112000 2.827000
-20.515000 37.406000 2.117000
-20.533000 39.611000 2.809000
-20.510000 37.721000 2.395000
-20.516000 37.174000 1.633000
-20.506000 38.443000 2.266000
-20.507000 37.509000 2.996000
-20.517000 39.161000 2.443000
-20.525000 39.250000 2.864000
-20.522000 39.333000 2.463000
-20.508000 36.943000 2.749000
-20.520000 40.184000 2.431000
-20.517000 40.322000 2.306000
-20.530000 40.061000 2.778000
-20.517000 39.043000 2.672000
-20.522000 40.387000 2.572000
-20.513000 37.704000 1.174000
-20.524000 39.259000 2.738000
-20.513000 37.118000 2.392000
-20.513000 37.604000 1.771000
-20.521000 37.145000 1.124000
-20.528000 40.669000 3.095000
-20.513000 37.249000 2.775000
-20.524000 39.145000 3.039000
-20.513000 37.640000 1.568000
-20.511000 36.888000 1.814000
-20.514000 37.577000 1.442000
-20.511000 37.690000 2.282000
-20.527000 39.920000 2.651000
-20.517000 40.031000 2.264000
-20.506000 38.774000 2.382000
-20.510000 37.795000 2.295000
-20.514000 37.185000 2.657000
-20.505000 38.673000 2.536000
-20.509000 38.874000 2.462000
-20.504000 38.657000 2.935000
-20.525000 40.562000 2.817000
-20.506000 37.959000 2.563000
-20.525000 39.305000 2.681000
-20.532000 40.203000 2.974000
-20.513000 37.112000 2.418000
-20.527000 40.689000 3.087000
-20.527000 40.204000 2.722000
-20.492000 37.289000 0.808000
-20.503000 38.611000 2.968000
-20.514000 37.199000 2.184000
-20.510000 36.929000 1.914000
-20.508000 37.054000 3.107000
-20.537000 39.631000 2.934000
-20.512000 39.042000 2.321000
-20.510000 40.077000 1.969000
-20.512000 37.849000 0.906000
-20.503000 37.827000 3.035000
-20.506000 37.744000 2.935000
-20.521000 37.226000 1.066000
-20.520000 36.940000 1.226000
-20.506000 38.844000 3.059000
-20.510000 37.040000 2.343000
-20.520000 39.141000 2.673000
-20.518000 40.442000 2.405000
-20.509000 37.747000 2.539000
-20.521000 39.305000 2.441000
-20.509000 38.060000 0.909000
-20.513000 37.651000 1.828000
-20.503000 38.495000 2.738000
-20.516000 37.404000 1.676000
-20.508000 37.040000 3.116000
-20.510000 37.003000 2.817000
-20.519000 37.104000 1.260000
-20.507000 38.028000 2.374000
-20.517000 37.112000 1.481000
-20.492000 36.845000 3.065000
-20.515000 37.407000 2.071000
-20.512000 40.323000 2.095000
-20.506000 38.715000 2.489000
-20.516000 37.319000 1.510000
-20.517000 39.669000 2.254000
-20.511000 37.730000 2.206000
-20.524000 40.344000 2.625000
-20.510000 38.011000 0.913000
-20.514000 37.508000 1.246000
-20.509000 37.227000 3.007000
-20.515000 37.432000 1.320000
-20.522000 40.913000 2.917000
-20.518000 39.089000 2.675000
-20.515000 38.940000 2.900000
-20.537000 39.998000 3.091000
-20.509000 38.032000 1.357000
-20.517000 37.150000 1.542000
-20.509000 38.921000 2.174000
-20.510000 37.900000 1.530000
-20.525000 40.455000 2.754000
-20.524000 39.418000 2.522000
-20.529000 40.587000 3.096000
-20.513000 38.958000 2.595000
-20.516000 40.162000 2.247000
-20.512000 37.376000 2.706000
-20.513000 37.674000 1.058000
-20.524000 40.284000 2.601000
-20.525000 39.964000 2.556000
-20.525000 40.591000 2.794000
-20.521000 39.736000 2.356000
-20.509000 38.050000 0.980000
-20.505000 36.866000 2.692000
-20.534000 40.229000 3.078000
-20.507000 38.705000 2.670000
-20.528000 40.343000 2.846000
-20.515000 37.373000 1.232000
-20.509000 37.947000 1.522000
-20.513000 37.132000 2.693000
-20.532000 39.426000 2.953000
-20.511000 38.859000 2.620000
-20.512000 37.654000 0.988000
-20.529000 39.884000 2.725000
-20.526000 39.209000 3.022000
-20.504000 38.303000 1.050000
-20.505000 38.215000 2.529000
-20.532000 39.715000 3.136000
-20.509000 38.791000 2.621000
-20.514000 37.132000 1.870000
-20.518000 39.136000 2.511000
-20.515000 37.500000 1.381000
-20.518000 39.620000 2.309000
-20.508000 37.917000 2.399000
-20.516000 37.348000 1.229000
-20.521000 40.957000 3.142000
-20.510000 37.687000 2.546000
-20.514000 37.395000 2.228000
-20.513000 37.121000 2.751000
-20.525000 40.389000 2.723000
-20.509000 37.998000 1.551000
-20.507000 38.124000 2.208000
-20.526000 39.397000 2.579000
-20.514000 40.476000 2.228000
-20.514000 38.933000 2.732000
-20.511000 37.600000 2.521000
-20.514000 37.469000 1.021000
-20.512000 37.083000 2.416000
-20.510000 37.893000 1.593000
-20.508000 37.511000 2.932000
-20.518000 39.620000 2.299000
-20.513000 40.377000 2.130000
-20.524000 40.392000 2.653000
-20.508000 37.078000 3.127000
-20.524000 40.341000 2.656000
-20.529000 40.388000 2.904000
-20.518000 39.763000 2.257000
-20.508000 38.034000 1.699000
-20.525000 40.099000 2.613000
-20.512000 37.148000 2.015000
-20.505000 38.588000 2.435000
-20.515000 37.284000 2.211000
-20.527000 40.309000 2.791000
-20.512000 37.557000 2.203000
-20.497000 38.393000 2.143000
-20.509000 37.427000 2.909000
-20.505000 36.893000 2.361000
-20.514000 37.529000 1.194000
-20.508000 37.796000 2.520000
-20.506000 38.245000 1.012000
-20.503000 38.113000 2.805000
-20.504000 37.905000 2.923000
-20.532000 40.234000 2.996000
-20.504000 38.397000 2.432000
-20.512000 37.822000 0.882000
-20.521000 41.087000 3.092000
-20.516000 37.005000 1.470000
-20.510000 37.017000 2.674000
-20.505000 36.866000 2.176000
-20.507000 38.135000 2.282000
-20.505000 37.721000 2.971000
-20.513000 37.329000 2.579000
-20.517000 39.354000 2.331000
-20.508000 36.910000 2.003000
-20.503000 38.391000 2.622000
-20.509000 38.788000 2.744000
-20.506000 37.948000 2.653000
-20.511000 40.410000 2.041000
-20.505000 38.555000 2.445000
-20.507000 36.916000 2.079000
-20.538000 39.561000 2.968000
-20.510000 37.870000 1.877000
-20.507000 37.429000 3.050000
-20.513000 37.572000 1.143000
-20.523000 39.927000 2.474000
-20.514000 37.443000 1.090000
-20.516000 37.319000 1.386000
-20.505000 37.909000 2.872000
-20.512000 40.544000 2.110000
-20.520000 40.932000 2.795000
-20.523000 40.049000 2.512000
-20.506000 38.600000 2.358000
-20.512000 37.424000 2.523000
-20.520000 41.003000 2.850000
-20.506000 38.159000 1.817000
-20.536000 39.773000 2.944000
-20.515000 37.063000 1.672000
-20.526000 39.815000 2.555000
-20.523000 40.573000 2.715000
-20.511000 37.775000 1.523000
-20.518000 37.240000 1.142000
-20.506000 38.252000 2.265000
-20.511000 37.767000 1.782000
-20.506000 38.226000 1.093000
-20.513000 37.506000 0.984000
-20.493000 38.341000 1.062000
-20.510000 40.321000 1.988000
-20.515000 37.278000 2.215000
-20.531000 40.475000 3.131000
-20.508000 39.651000 2.141000
-20.520000 40.045000 2.405000
-20.534000 40.303000 3.134000
-20.505000 38.498000 2.405000
-20.513000 37.266000 2.621000
-20.510000 38.018000 1.241000
-20.530000 40.354000 2.958000
-20.510000 37.502000 2.779000
-20.527000 40.515000 2.870000
-20.512000 37.803000 0.966000
-20.509000 37.960000 1.716000
-20.536000 39.594000 2.879000
-20.505000 38.765000 2.960000
-20.516000 37.061000 1.475000
-20.506000 38.351000 2.173000
-20.511000 37.984000 1.014000
-20.507000 38.872000 2.960000
-20.514000 37.539000 1.876000
-20.505000 38.612000 2.703000
-20.507000 37.761000 2.794000
-20.537000 39.992000 3.088000
-20.522000 39.397000 2.473000
-20.519000 40.570000 2.506000
-20.521000 39.467000 2.419000
-20.510000 37.907000 1.418000
-20.515000 37.470000 1.501000
-20.506000 37.290000 3.154000
-20.514000 37.482000 2.074000
-20.516000 37.385000 1.350000
-20.509000 37.548000 2.859000
-20.509000 37.616000 2.835000
-20.515000 37.392000 2.053000
-20.506000 37.561000 3.041000
-20.512000 37.698000 2.055000
-20.500000 38.141000 2.983000
-20.509000 38.086000 0.954000
-20.513000 37.435000 2.232000
-20.520000 40.577000 2.528000
-20.513000 37.532000 1.178000
-20.511000 37.986000 1.031000
-20.531000 40.172000 2.894000
-20.507000 36.930000 2.066000
-20.508000 38.034000 2.083000
-20.526000 39.956000 2.619000
-20.524000 39.828000 2.489000
-20.504000 38.523000 2.520000
-20.508000 39.868000 2.134000
-20.510000 37.975000 1.210000
-20.510000 36.873000 1.845000
-20.509000 38.038000 1.465000
-20.518000 40.661000 2.498000
-20.521000 36.935000 0.996000
-20.514000 37.136000 2.573000
-20.505000 38.080000 2.582000
-20.524000 40.727000 2.846000
-20.504000 38.544000 2.745000
-20.508000 37.031000 2.162000
-20.513000 40.506000 2.152000
-20.521000 40.756000 2.676000
-20.523000 40.474000 2.676000
-20.529000 39.718000 2.679000
-20.520000 41.120000 2.955000
