-18.771000 41.238000 2.188000
-16.555000 41.219000 1.353000
-19.116000 41.240000 2.246000
-17.810000 41.208000 1.365000
-18.058000 41.217000 1.753000
-17.090000 41.208000 1.616000
-19.854000 41.252000 1.412000
-20.517000 41.257000 2.939000
-15.626000 41.224000 1.801000
-17.852000 41.246000 2.300000
-20.152000 41.256000 2.872000
-19.673000 41.248000 1.725000
-19.512000 41.245000 1.424000
-19.742000 41.250000 1.953000
-19.686000 41.249000 2.438000
-17.499000 41.227000 2.074000
-17.487000 41.211000 0.714000
-17.638000 41.200000 1.008000
-16.875000 41.255000 3.097000
-17.893000 41.194000 0.136000
-20.380000 41.260000 2.761000
-15.756000 41.192000 0.734000
-17.293000 41.211000 1.743000
-19.328000 41.226000 1.393000
-18.518000 41.201000 0.885000
-18.321000 41.215000 1.579000
-15.599000 41.223000 1.803000
-17.975000 41.208000 1.300000
-18.364000 41.248000 2.697000
-17.164000 41.252000 2.876000
-15.614000 41.223000 1.788000
-15.782000 41.222000 1.671000
-16.891000 41.219000 1.607000
-15.647000 41.223000 1.756000
-16.796000 41.209000 1.248000
-18.626000 41.238000 2.255000
-16.314000 41.205000 0.893000
-17.423000 41.202000 1.222000
-17.466000 41.213000 1.811000
-16.599000 41.229000 1.802000
-16.051000 41.238000 2.353000
-20.463000 41.261000 2.665000
-18.920000 41.219000 1.341000
-18.036000 41.246000 2.534000
-16.614000 41.228000 1.731000
-16.978000 41.185000 0.084000
-17.514000 41.242000 2.158000
-16.646000 41.240000 2.248000
-20.476000 41.246000 1.663000
-15.635000 41.194000 0.854000
-19.911000 41.254000 2.679000
-20.454000 41.253000 2.345000
-16.405000 41.215000 1.245000
-18.351000 41.215000 1.579000
-17.488000 41.197000 0.146000
-16.237000 41.217000 1.364000
-15.814000 41.234000 2.347000
-17.354000 41.242000 2.245000
-16.245000 41.245000 2.478000
-18.973000 41.219000 1.898000
-19.181000 41.240000 2.237000
-18.545000 41.201000 0.855000
-18.598000 41.216000 1.582000
-19.556000 41.245000 2.349000
-17.589000 41.244000 2.243000
-15.733000 41.217000 1.525000
-15.649000 41.218000 1.604000
-20.382000 41.260000 2.704000
-18.229000 41.209000 1.264000
-19.480000 41.245000 1.316000
-17.875000 41.217000 1.835000
-17.573000 41.207000 0.471000
-18.674000 41.239000 2.853000
-18.268000 41.206000 0.934000
-18.141000 41.220000 2.000000
-16.169000 41.239000 2.300000
-17.604000 41.253000 3.132000
-18.491000 41.216000 1.598000
-20.358000 41.257000 2.172000
-17.361000 41.198000 1.005000
-17.239000 41.253000 2.931000
-17.588000 41.213000 1.731000
-16.452000 41.208000 0.955000
-18.202000 41.220000 2.035000
-17.337000 41.249000 2.721000
-17.606000 41.201000 0.249000
-18.110000 41.199000 0.077000
-16.019000 41.209000 1.148000
-20.076000 41.257000 2.678000
-20.093000 41.256000 2.762000
-19.401000 41.241000 1.698000
-16.020000 41.233000 2.040000
-17.030000 41.239000 2.207000
-16.120000 41.206000 1.003000
-17.245000 41.202000 1.237000
-20.312000 41.259000 2.735000
-18.522000 41.242000 2.984000
-16.630000 41.247000 2.576000
-16.166000 41.205000 0.980000
-17.805000 41.258000 2.993000
-16.550000 41.250000 2.732000
-18.240000 41.209000 0.959000
-16.785000 41.232000 1.908000
-19.919000 41.253000 1.701000
-16.996000 41.189000 0.110000
-17.456000 41.249000 2.638000
-16.600000 41.239000 2.211000
-20.419000 41.260000 2.512000
-16.892000 41.248000 2.766000
-15.928000 41.218000 1.508000
-18.868000 41.237000 2.506000
-17.436000 41.254000 3.108000
-17.825000 41.219000 1.985000
-15.711000 41.229000 1.993000
-18.420000 41.215000 1.543000
-17.754000 41.249000 2.643000
-16.059000 41.199000 0.787000
-17.464000 41.252000 2.857000
-18.299000 41.218000 1.821000
-16.738000 41.250000 2.827000
-20.240000 41.258000 2.720000
-18.842000 41.238000 2.341000
-20.357000 41.255000 1.369000
-17.138000 41.189000 0.689000
-19.178000 41.218000 1.579000
-19.748000 41.250000 2.304000
-19.806000 41.251000 2.746000
-17.979000 41.192000 0.075000
-16.868000 41.206000 1.198000
-18.361000 41.248000 2.702000
-20.482000 41.252000 2.394000
-19.325000 41.239000 2.649000
-17.314000 41.212000 1.800000
-17.537000 41.216000 1.941000
-16.374000 41.221000 1.452000
-16.085000 41.201000 0.849000
-15.925000 41.253000 2.985000
-17.105000 41.236000 3.149000
-17.224000 41.244000 2.459000
-17.856000 41.194000 0.903000
-18.413000 41.246000 2.685000
-15.305000 41.179000 1.297000
-19.708000 41.249000 2.098000
-16.471000 41.209000 1.014000
-19.145000 41.240000 2.198000
-17.681000 41.257000 3.102000
-19.987000 41.253000 2.920000
-17.424000 41.248000 2.653000
-17.425000 41.202000 1.195000
-16.661000 41.252000 2.894000
-20.024000 41.256000 2.576000
-15.299000 41.182000 1.571000
-18.974000 41.238000 2.458000
-17.909000 41.204000 1.151000
-15.697000 41.198000 0.935000
-17.385000 41.215000 1.890000
-18.904000 41.219000 1.781000
-17.471000 41.247000 2.537000
-16.173000 41.201000 0.824000
-18.087000 41.216000 1.725000
-15.728000 41.228000 1.923000
-17.568000 41.255000 3.082000
-16.658000 41.215000 1.081000
-15.514000 41.228000 2.130000
-15.486000 41.210000 1.414000
-19.486000 41.244000 1.763000
-16.947000 41.247000 2.693000
-17.815000 41.195000 0.169000
-16.769000 41.244000 2.472000
-20.036000 41.255000 1.485000
-17.528000 41.211000 1.643000
-15.815000 41.199000 0.909000
-18.037000 41.198000 0.128000
-17.021000 41.206000 1.519000
-18.111000 41.208000 1.255000
-16.871000 41.255000 3.099000
-16.666000 41.213000 1.264000
-18.470000 41.209000 1.004000
-19.324000 41.241000 2.436000
-17.269000 41.202000 1.266000
-18.719000 41.216000 1.200000
-20.162000 41.258000 1.706000
-18.040000 41.212000 1.507000
-15.500000 41.197000 1.019000
-20.377000 41.258000 2.941000
-15.884000 41.240000 2.499000
-16.939000 41.203000 0.447000
-19.417000 41.243000 1.353000
-18.722000 41.220000 1.750000
-17.207000 41.213000 1.847000
-19.025000 41.238000 2.543000
-17.184000 41.242000 2.340000
-15.892000 41.229000 1.902000
-18.643000 41.211000 1.048000
-20.339000 41.257000 2.174000
-20.014000 41.255000 2.505000
-15.669000 41.229000 2.168000
-17.934000 41.254000 2.820000
-15.764000 41.207000 1.182000
-18.582000 41.242000 2.583000
-16.315000 41.250000 2.655000
-17.853000 41.188000 0.077000
-18.194000 41.219000 1.912000
-15.760000 41.192000 0.737000
-19.770000 41.251000 2.524000
-16.824000 41.253000 2.981000
-17.135000 41.203000 1.316000
-15.962000 41.226000 1.769000
-15.344000 41.187000 0.783000
-17.456000 41.198000 0.131000
-19.600000 41.246000 2.082000
-20.117000 41.256000 2.432000
-16.327000 41.246000 2.501000
-19.063000 41.219000 1.755000
-18.613000 41.240000 2.861000
-18.941000 41.237000 2.528000
-17.104000 41.212000 0.779000
-17.977000 41.190000 0.900000
-17.915000 41.227000 2.071000
-18.180000 41.208000 1.056000
-16.607000 41.253000 2.912000
-17.806000 41.217000 1.864000
-16.124000 41.235000 2.177000
-15.667000 41.229000 2.173000
-18.606000 41.218000 1.741000
-18.606000 41.240000 2.516000
-20.468000 41.229000 1.082000
-18.059000 41.220000 2.048000
-19.768000 41.251000 2.323000
-15.542000 41.198000 1.012000
-17.427000 41.207000 0.548000
-18.262000 41.248000 2.592000
-20.244000 41.257000 2.897000
-15.778000 41.226000 1.813000
-19.323000 41.223000 1.995000
-15.955000 41.233000 2.206000
-20.345000 41.257000 2.993000
-20.288000 41.259000 2.794000
-19.581000 41.246000 1.895000
-17.094000 41.209000 1.665000
-18.865000 41.237000 2.507000
-20.050000 41.253000 3.012000
-16.542000 41.251000 2.780000
-17.940000 41.259000 3.021000
-18.514000 41.208000 0.980000
-18.036000 41.206000 1.035000
-16.050000 41.242000 2.497000
-17.666000 41.245000 2.276000
-18.348000 41.244000 2.432000
-16.426000 41.240000 3.140000
-18.406000 41.245000 3.073000
-17.206000 41.194000 0.631000
-20.392000 41.258000 3.029000
-17.680000 41.217000 0.808000
-18.339000 41.214000 1.531000
-16.818000 41.216000 1.467000
-19.232000 41.218000 1.320000
-18.839000 41.217000 1.048000
-18.763000 41.213000 0.960000
-19.609000 41.246000 2.034000
-20.213000 41.258000 2.412000
-18.199000 41.196000 0.918000
-18.993000 41.228000 2.109000
-19.143000 41.238000 2.668000
-18.953000 41.236000 2.676000
-18.485000 41.229000 2.089000
-20.466000 41.246000 1.053000
-20.410000 41.259000 2.932000
-16.974000 41.183000 0.074000
-20.330000 41.260000 2.685000
-17.505000 41.207000 0.501000
-19.664000 41.248000 1.795000
-17.888000 41.204000 0.939000
-17.589000 41.211000 0.605000
-17.249000 41.241000 2.224000
-17.389000 41.201000 1.175000
-16.929000 41.204000 1.212000
-20.030000 41.215000 0.797000
-18.690000 41.212000 1.049000
-19.233000 41.218000 1.181000
-16.044000 41.222000 1.589000
-15.954000 41.244000 2.604000
-18.695000 41.237000 2.357000
-17.489000 41.244000 2.258000
-16.257000 41.223000 1.566000
-16.408000 41.232000 1.921000
-15.392000 41.200000 1.133000
-16.886000 41.226000 1.853000
-16.210000 41.253000 2.809000
-15.932000 41.249000 2.830000
-17.014000 41.210000 1.762000
-18.260000 41.214000 1.520000
-16.858000 41.229000 1.877000
-15.578000 41.224000 1.836000
-18.022000 41.207000 1.255000
-18.833000 41.219000 1.730000
-17.429000 41.252000 2.841000
-16.309000 41.230000 1.872000
-15.853000 41.226000 1.785000
-17.928000 41.208000 1.359000
-15.326000 41.214000 1.603000
-18.217000 41.220000 2.045000
-20.463000 41.200000 0.620000
-15.657000 41.228000 1.991000
-18.183000 41.243000 2.407000
-17.508000 41.198000 0.945000
-20.424000 41.242000 0.922000
-16.317000 41.227000 1.709000
-18.330000 41.248000 2.561000
-18.830000 41.217000 1.109000
-17.184000 41.206000 1.478000
-17.408000 41.202000 1.201000
-18.913000 41.236000 2.671000
-20.209000 41.258000 1.972000
-20.467000 41.238000 1.468000
-18.021000 41.198000 0.131000
-16.882000 41.242000 2.415000
-17.992000 41.219000 1.966000
-19.028000 41.239000 2.313000
-15.304000 41.182000 1.334000
-19.210000 41.218000 1.874000
-17.949000 41.204000 0.219000
-15.941000 41.206000 1.077000
-16.821000 41.206000 1.009000
-17.023000 41.200000 1.173000
-18.386000 41.247000 2.705000
-17.295000 41.225000 2.071000
-17.614000 41.216000 1.907000
-18.034000 41.207000 1.227000
-15.739000 41.217000 1.531000
-16.722000 41.213000 1.309000
-20.354000 41.256000 2.254000
-16.448000 41.244000 3.140000
-16.834000 41.255000 3.119000
-16.436000 41.222000 1.475000
-18.560000 41.238000 2.205000
-15.950000 41.229000 1.896000
-15.592000 41.200000 1.046000
-15.904000 41.249000 2.821000
-16.287000 41.223000 1.579000
-16.684000 41.246000 2.548000
-18.026000 41.208000 0.240000
-17.815000 41.186000 0.864000
-20.105000 41.256000 2.811000
-18.471000 41.241000 2.302000
-17.695000 41.245000 2.230000
-16.956000 41.237000 2.113000
-19.932000 41.254000 1.885000
-16.974000 41.211000 1.784000
-17.154000 41.200000 1.148000
-19.983000 41.255000 1.785000
-15.480000 41.214000 1.524000
-19.087000 41.237000 2.715000
-16.180000 41.250000 2.734000
-20.363000 41.253000 1.621000
-19.002000 41.219000 1.669000
-17.083000 41.249000 3.142000
-15.323000 41.214000 1.595000
-17.876000 41.219000 0.791000
-17.222000 41.242000 2.309000
-18.770000 41.237000 2.475000
-19.801000 41.251000 1.956000
-16.590000 41.208000 0.914000
-17.453000 41.199000 1.039000
-17.564000 41.255000 3.102000
-18.521000 41.243000 2.523000
-16.494000 41.219000 1.373000
-18.042000 41.257000 3.084000
-20.485000 41.217000 1.366000
-15.984000 41.216000 1.424000
-16.980000 41.204000 1.407000
-17.261000 41.206000 1.458000
-15.403000 41.195000 0.997000
-17.793000 41.248000 2.491000
-17.582000 41.254000 2.975000
-16.040000 41.207000 1.071000
-17.100000 41.196000 0.963000
-16.008000 41.215000 1.375000
-18.057000 41.212000 1.533000
-16.749000 41.235000 2.057000
-15.831000 41.245000 2.727000
-19.257000 41.240000 2.364000
-16.614000 41.214000 1.118000
-16.734000 41.207000 0.744000
-16.099000 41.235000 2.171000
-18.359000 41.219000 1.914000
-20.160000 41.257000 1.900000
-17.399000 41.253000 2.903000
-16.281000 41.239000 2.261000
-17.794000 41.218000 0.820000
-15.404000 41.201000 1.147000
-20.254000 41.258000 2.418000
-16.638000 41.229000 1.781000
-16.272000 41.248000 2.577000
-18.767000 41.237000 2.742000
-16.374000 41.243000 2.383000
-15.539000 41.196000 0.962000
-16.724000 41.253000 2.976000
-15.911000 41.194000 0.721000
-17.000000 41.195000 0.953000
-17.330000 41.205000 1.406000
-19.938000 41.254000 2.551000
-17.273000 41.245000 2.504000
-17.629000 41.202000 0.292000
-18.853000 41.218000 1.375000
-19.403000 41.242000 1.754000
-17.556000 41.207000 0.483000
-16.981000 41.187000 0.093000
-18.710000 41.217000 1.517000
-17.305000 41.197000 0.965000
-15.931000 41.198000 0.821000
-15.865000 41.196000 0.804000
-16.528000 41.255000 3.044000
-16.381000 41.212000 1.131000
-17.196000 41.206000 0.841000
-19.938000 41.254000 1.554000
-17.472000 41.204000 0.318000
-20.162000 41.257000 2.025000
-18.112000 41.192000 0.907000
-20.482000 41.251000 2.341000
-19.832000 41.252000 2.419000
-17.391000 41.193000 0.084000
-15.500000 41.215000 1.548000
-17.936000 41.199000 0.174000
-18.718000 41.214000 1.084000
-18.527000 41.241000 2.368000
-18.489000 41.238000 2.151000
-17.189000 41.254000 2.937000
-15.452000 41.228000 2.152000
-18.191000 41.251000 3.129000
-18.325000 41.250000 2.908000
-17.127000 41.201000 1.242000
-18.358000 41.217000 1.699000
-16.666000 41.254000 3.030000
-18.684000 41.220000 1.797000
-17.493000 41.253000 2.925000
-15.728000 41.192000 0.739000
-18.085000 41.230000 2.077000
-18.365000 41.243000 2.382000
-15.410000 41.222000 1.851000
-15.358000 41.214000 1.600000
-18.723000 41.238000 2.537000
-17.829000 41.203000 1.110000
-19.339000 41.240000 2.642000
-18.406000 41.209000 1.001000
-17.423000 41.228000 2.079000
-15.782000 41.193000 0.760000
-20.242000 41.259000 1.874000
-15.296000 41.189000 1.708000
-16.407000 41.219000 1.379000
-16.170000 41.210000 1.138000
-19.741000 41.249000 1.645000
-17.405000 41.205000 1.396000
-16.766000 41.212000 0.851000
-18.298000 41.249000 2.694000
-16.716000 41.236000 2.106000
-19.555000 41.245000 1.861000
-18.154000 41.240000 2.130000
-16.824000 41.236000 2.086000
-17.022000 41.199000 1.135000
-15.701000 41.197000 0.928000
-16.120000 41.254000 2.926000
-16.170000 41.232000 1.978000
-19.035000 41.238000 2.446000
-17.459000 41.253000 3.002000
-17.873000 41.213000 1.630000
-16.788000 41.212000 1.328000
-20.093000 41.256000 1.508000
-15.551000 41.218000 1.653000
-18.536000 41.239000 2.212000
-16.134000 41.255000 3.097000
-20.014000 41.255000 1.733000
-16.252000 41.244000 2.463000
-17.117000 41.247000 2.687000
-17.625000 41.202000 0.290000
-19.278000 41.240000 2.413000
-16.985000 41.204000 1.440000
-16.493000 41.228000 1.761000
-19.670000 41.248000 1.854000
-19.872000 41.253000 2.326000
-16.615000 41.226000 1.630000
-17.417000 41.254000 3.029000
-17.850000 41.214000 1.697000
-17.460000 41.210000 1.640000
-19.143000 41.218000 1.732000
-20.111000 41.216000 0.067000
-18.819000 41.214000 0.922000
-17.131000 41.181000 0.658000
-18.093000 41.250000 2.669000
-18.459000 41.210000 1.079000
-15.322000 41.197000 1.061000
-19.860000 41.253000 2.551000
-16.839000 41.241000 2.330000
-15.772000 41.231000 2.621000
-16.162000 41.248000 2.668000
-15.779000 41.197000 0.867000
-15.765000 41.209000 1.239000
-17.938000 41.256000 2.898000
-15.901000 41.225000 1.752000
-15.897000 41.235000 2.335000
-19.839000 41.189000 0.073000
-18.825000 41.236000 2.710000
-17.215000 41.240000 2.143000
-15.945000 41.226000 1.755000
-15.847000 41.205000 1.074000
-19.006000 41.239000 2.270000
-17.377000 41.196000 0.898000
-17.325000 41.254000 2.993000
-16.364000 41.250000 2.639000
-20.462000 41.261000 2.805000
-16.738000 41.239000 2.228000
-15.526000 41.219000 1.697000
-17.160000 41.240000 2.199000
-15.921000 41.211000 1.268000
-19.053000 41.219000 1.014000
-19.786000 41.251000 2.711000
-18.077000 41.251000 2.720000
-15.557000 41.223000 1.825000
-19.584000 41.247000 1.472000
-18.062000 41.218000 1.854000
-19.151000 41.230000 2.116000
-20.277000 41.259000 1.902000
-17.357000 41.244000 2.402000
-16.617000 41.232000 1.940000
-20.270000 41.260000 1.645000
-16.228000 41.239000 2.273000
-18.719000 41.237000 2.434000
-16.797000 41.239000 2.194000
-16.625000 41.233000 1.988000
-18.065000 41.255000 2.849000
-18.739000 41.237000 2.472000
-17.783000 41.212000 1.595000
-18.917000 41.219000 1.911000
-15.936000 41.221000 1.618000
-19.471000 41.243000 2.294000
-15.968000 41.200000 0.886000
-16.517000 41.247000 2.542000
-20.478000 41.243000 1.583000
-19.350000 41.240000 2.688000
-16.793000 41.205000 1.126000
-18.139000 41.255000 2.959000
-19.087000 41.219000 1.878000
-18.136000 41.214000 1.609000
-16.206000 41.205000 0.955000
-16.529000 41.218000 1.297000
-20.090000 41.257000 2.725000
-17.231000 41.205000 1.433000
-17.347000 41.210000 1.649000
-18.883000 41.238000 2.231000
-18.554000 41.243000 2.704000
-18.706000 41.239000 2.713000
-19.177000 41.218000 1.290000
-17.660000 41.210000 1.563000
-16.969000 41.208000 0.650000
-16.785000 41.249000 2.803000
-17.401000 41.217000 2.015000
-20.225000 41.256000 2.924000
-15.683000 41.201000 1.057000
-19.279000 41.218000 1.296000
-18.991000 41.219000 1.641000
-18.702000 41.215000 1.290000
-19.172000 41.218000 1.207000
-17.134000 41.212000 1.840000
-16.867000 41.245000 2.568000
-17.830000 41.251000 2.731000
-15.458000 41.217000 1.628000
-19.482000 41.245000 1.395000
-18.125000 41.243000 2.245000
-18.607000 41.240000 2.500000
-18.637000 41.215000 1.403000
-17.639000 41.214000 1.775000
-18.170000 41.216000 1.694000
-15.880000 41.205000 1.085000
-20.476000 41.221000 1.214000
-15.841000 41.236000 2.386000
-17.028000 41.206000 1.551000
-17.767000 41.250000 2.699000
-17.276000 41.254000 3.001000
-17.405000 41.200000 0.145000
-16.859000 41.241000 2.333000
-20.393000 41.246000 1.517000
-17.088000 41.255000 3.098000
-15.811000 41.251000 2.960000
-20.370000 41.257000 2.109000
-20.476000 41.251000 1.769000
-19.021000 41.219000 1.023000
-20.052000 41.255000 2.103000
-18.534000 41.233000 2.125000
-18.078000 41.210000 1.406000
-20.018000 41.256000 2.581000
-17.963000 41.205000 1.142000
-17.426000 41.221000 2.055000
-17.909000 41.215000 1.756000
-16.902000 41.247000 2.721000
-18.905000 41.236000 2.704000
-18.681000 41.218000 1.685000
-16.241000 41.228000 1.805000
-17.894000 41.213000 1.634000
-18.089000 41.218000 1.904000
-19.361000 41.234000 1.308000
-16.260000 41.209000 1.094000
-17.211000 41.247000 2.660000
-17.838000 41.193000 0.139000
-17.167000 41.208000 1.626000
-18.730000 41.230000 2.119000
-18.003000 41.221000 0.762000
-15.751000 41.229000 1.943000
-17.408000 41.242000 2.152000
-17.325000 41.211000 0.736000
-18.413000 41.244000 3.103000
-18.539000 41.217000 1.735000
-16.387000 41.214000 1.227000
-20.373000 41.259000 2.898000
-20.280000 41.258000 2.199000
-20.131000 41.238000 0.866000
-17.684000 41.207000 0.820000
-18.331000 41.246000 3.108000
-17.799000 41.218000 0.737000
-16.274000 41.211000 1.159000
-16.866000 41.200000 1.027000
-19.159000 41.239000 2.600000
-18.246000 41.245000 2.471000
-18.786000 41.237000 2.587000
-17.868000 41.203000 1.029000
-19.113000 41.222000 0.872000
-17.082000 41.182000 0.129000
-18.491000 41.217000 1.692000
-18.451000 41.211000 1.177000
-17.405000 41.215000 1.920000
-17.931000 41.256000 2.899000
-18.053000 41.217000 1.800000
-16.929000 41.237000 2.129000
-17.881000 41.205000 1.214000
-17.057000 41.199000 0.893000
-16.546000 41.216000 1.217000
-16.418000 41.231000 1.904000
-17.428000 41.253000 2.992000
-15.844000 41.239000 2.496000
-20.222000 41.258000 2.067000
-19.240000 41.218000 1.450000
-20.413000 41.239000 0.807000
-19.377000 41.237000 1.227000
-17.458000 41.212000 0.733000
-20.275000 41.258000 2.354000
-17.304000 41.247000 2.621000
-16.342000 41.241000 2.326000
-15.350000 41.206000 1.342000
-15.811000 41.201000 0.970000
-18.855000 41.236000 2.598000
-19.863000 41.252000 1.839000
-17.123000 41.208000 1.603000
-17.949000 41.249000 2.631000
-18.776000 41.220000 1.962000
-16.314000 41.240000 2.282000
-16.617000 41.221000 1.451000
-16.950000 41.197000 1.064000
-16.132000 41.254000 3.010000
-17.391000 41.215000 1.886000
-19.871000 41.252000 1.457000
-17.712000 41.247000 2.378000
-16.184000 41.236000 2.194000
-20.124000 41.257000 1.996000
-20.170000 41.257000 2.760000
-17.698000 41.198000 0.834000
-19.529000 41.246000 1.330000
-17.032000 41.203000 1.340000
-17.392000 41.205000 1.372000
-17.567000 41.245000 2.315000
-16.534000 41.254000 2.968000
-19.746000 41.250000 2.827000
-17.633000 41.247000 2.409000
-15.824000 41.211000 1.306000
-15.972000 41.235000 2.283000
-16.173000 41.215000 1.314000
-17.530000 41.198000 0.174000
-17.915000 41.207000 1.290000
-20.218000 41.258000 1.963000
-15.335000 41.209000 1.444000
-18.093000 41.243000 2.251000
-15.624000 41.217000 1.579000
-20.463000 41.255000 2.039000
-15.498000 41.191000 0.825000
-16.688000 41.252000 2.897000
-17.419000 41.201000 1.185000
-16.114000 41.205000 0.978000
-19.338000 41.241000 2.404000
-19.687000 41.248000 2.183000
-18.379000 41.248000 2.810000
-19.191000 41.218000 0.879000
-16.664000 41.243000 2.396000
-17.155000 41.214000 1.950000
-17.240000 41.182000 0.639000
-16.476000 41.249000 2.625000
-18.964000 41.219000 1.691000
-20.270000 41.256000 3.042000
-16.307000 41.253000 2.870000
-16.359000 41.254000 2.952000
-18.560000 41.208000 1.015000
-18.427000 41.244000 3.070000
-18.303000 41.217000 1.746000
-16.737000 41.244000 2.445000
-15.623000 41.200000 1.041000
-15.808000 41.219000 1.570000
-16.516000 41.226000 1.640000
-16.221000 41.253000 2.855000
-18.491000 41.244000 2.584000
-20.507000 41.243000 2.419000
-18.081000 41.211000 1.453000
-20.355000 41.258000 1.891000
-17.456000 41.175000 0.073000
-18.982000 41.219000 1.841000
-19.087000 41.222000 0.871000
-16.919000 41.242000 2.424000
-19.017000 41.220000 0.957000
-20.156000 41.257000 2.046000
-19.745000 41.250000 2.583000
-15.959000 41.214000 1.350000
-16.126000 41.238000 2.278000
-15.768000 41.206000 1.168000
-16.682000 41.227000 1.701000
-16.858000 41.255000 3.046000
-18.897000 41.219000 1.769000
-16.141000 41.250000 2.754000
-18.141000 41.224000 2.059000
-17.483000 41.213000 0.771000
-15.945000 41.225000 3.126000
-16.970000 41.241000 2.405000
-20.037000 41.256000 2.761000
-16.729000 41.245000 2.489000
-19.815000 41.251000 1.620000
-15.952000 41.221000 1.604000
-15.715000 41.206000 1.191000
-19.230000 41.218000 1.854000
-16.438000 41.252000 2.774000
-17.651000 41.247000 2.437000
-16.159000 41.201000 0.818000
-15.907000 41.211000 1.289000
-17.821000 41.247000 2.345000
-17.137000 41.214000 1.929000
-18.035000 41.251000 2.726000
-19.744000 41.250000 2.262000
-15.933000 41.203000 0.991000
-18.865000 41.237000 2.504000
-17.274000 41.201000 0.871000
-18.554000 41.219000 1.890000
-18.451000 41.219000 1.879000
-17.000000 41.201000 1.257000
-17.614000 41.200000 1.053000
-17.334000 41.217000 2.040000
-17.527000 41.214000 0.789000
-15.984000 41.212000 1.281000
-17.845000 41.211000 1.522000
-18.159000 41.254000 3.027000
-17.405000 41.213000 0.798000
-18.487000 41.212000 1.362000
-18.968000 41.220000 0.974000
-17.357000 41.242000 2.219000
-19.422000 41.243000 1.477000
-18.443000 41.239000 2.152000
-16.173000 41.205000 0.975000
-17.248000 41.209000 1.624000
-19.995000 41.254000 2.249000
-20.424000 41.247000 1.590000
-16.388000 41.241000 2.301000
-18.455000 41.213000 1.390000
-17.061000 41.205000 1.456000
-20.382000 41.251000 1.602000
-18.304000 41.243000 2.407000
-17.308000 41.204000 1.379000
-16.819000 41.205000 1.132000
-16.560000 41.252000 2.823000
-17.247000 41.236000 2.104000
-18.300000 41.219000 1.871000
-17.445000 41.243000 2.257000
-18.665000 41.212000 1.059000
-17.327000 41.250000 2.750000
-20.438000 41.257000 2.462000
-17.262000 41.248000 2.694000
-16.234000 41.230000 1.887000
-15.849000 41.209000 1.243000
-18.326000 41.209000 0.938000
-18.344000 41.243000 2.409000
-17.468000 41.216000 1.928000
-19.234000 41.218000 0.953000
-16.379000 41.203000 0.805000
-17.383000 41.200000 1.128000
-16.434000 41.220000 1.411000
-20.311000 41.259000 2.376000
-17.786000 41.210000 1.507000
-15.467000 41.216000 1.608000
-17.755000 41.252000 2.778000
-19.766000 41.250000 1.949000
-15.537000 41.200000 1.086000
-17.388000 41.207000 1.500000
-19.094000 41.218000 1.446000
-15.670000 41.220000 1.677000
-20.315000 41.258000 2.143000
-16.401000 41.226000 1.653000
-16.076000 41.225000 1.692000
-20.467000 41.235000 1.066000
-16.282000 41.242000 2.351000
-17.432000 41.203000 1.278000
-18.421000 41.216000 1.662000
-19.771000 41.250000 1.857000
-16.205000 41.233000 2.008000
-20.367000 41.260000 2.582000
-16.555000 41.206000 0.869000
-20.493000 41.232000 1.876000
-17.238000 41.211000 1.761000
-16.490000 41.248000 2.564000
-15.814000 41.242000 2.617000
-20.447000 41.242000 1.380000
-19.997000 41.255000 1.763000
-15.692000 41.229000 2.051000
-15.472000 41.223000 1.879000
-17.819000 41.204000 1.153000
-17.903000 41.249000 2.658000
-17.508000 41.244000 2.283000
-18.649000 41.220000 1.842000
-19.135000 41.218000 1.162000
-16.173000 41.246000 2.589000
-16.530000 41.208000 0.934000
-17.395000 41.246000 2.512000
-19.237000 41.218000 1.617000
-19.154000 41.218000 1.769000
-18.377000 41.247000 2.594000
-18.866000 41.220000 2.004000
-17.449000 41.216000 1.940000
-15.966000 41.223000 1.644000
-19.901000 41.253000 2.356000
-16.784000 41.240000 2.251000
-16.858000 41.242000 3.148000
-20.242000 41.259000 2.701000
-17.109000 41.206000 1.491000
-15.346000 41.220000 1.804000
-16.431000 41.250000 2.669000
-16.391000 41.227000 1.696000
-18.073000 41.207000 1.239000
-19.371000 41.241000 2.401000
-19.011000 41.238000 2.496000
-18.509000 41.242000 3.080000
-17.947000 41.204000 1.048000
-15.460000 41.226000 2.005000
-19.539000 41.246000 1.544000
-17.547000 41.212000 1.705000
-17.053000 41.250000 2.798000
-18.303000 41.250000 2.743000
-18.912000 41.218000 1.414000
-17.762000 41.196000 0.194000
-18.423000 41.240000 2.212000
-20.154000 41.257000 2.456000
-15.898000 41.253000 2.998000
-19.919000 41.253000 1.581000
-19.265000 41.218000 0.925000
-16.688000 41.253000 2.961000
-16.469000 41.225000 1.631000
-19.386000 41.239000 1.344000
-18.311000 41.241000 2.211000
-15.716000 41.229000 2.033000
-17.058000 41.250000 2.809000
-18.135000 41.250000 2.664000
-17.258000 41.210000 0.730000
-19.347000 41.229000 1.808000
-16.027000 41.248000 2.727000
-19.515000 41.245000 1.520000
-17.524000 41.211000 1.664000
-17.929000 41.207000 1.314000
-16.283000 41.237000 2.188000
-16.947000 41.202000 1.305000
-17.681000 41.209000 1.485000
-17.106000 41.251000 2.821000
-18.478000 41.244000 2.571000
-18.521000 41.244000 2.746000
-16.434000 41.202000 0.771000
-16.156000 41.202000 0.852000
-18.222000 41.211000 1.405000
-18.109000 41.207000 0.982000
-15.969000 41.226000 1.774000
-18.124000 41.235000 2.092000
-17.921000 41.219000 0.711000
-19.912000 41.254000 2.705000
-18.240000 41.209000 1.185000
-15.363000 41.209000 1.418000
-16.087000 41.210000 1.193000
-20.295000 41.259000 1.938000
-19.907000 41.253000 1.627000
-19.713000 41.249000 1.445000
-17.384000 41.207000 1.523000
-16.632000 41.243000 2.352000
-16.791000 41.234000 1.979000
-16.982000 41.211000 1.812000
-15.905000 41.221000 1.613000
-17.201000 41.205000 1.422000
-16.625000 41.223000 1.538000
-18.049000 41.244000 2.355000
-16.964000 41.198000 1.073000
-15.935000 41.250000 3.125000
-18.855000 41.218000 1.374000
-17.510000 41.198000 0.918000
-19.681000 41.248000 1.910000
-19.544000 41.245000 2.618000
-19.993000 41.254000 1.499000
-18.087000 41.218000 1.888000
-18.592000 41.217000 1.679000
-15.918000 41.200000 0.910000
-16.910000 41.198000 0.977000
-19.072000 41.218000 1.378000
-18.175000 41.209000 1.310000
-19.254000 41.218000 1.773000
-17.264000 41.254000 3.036000
-17.571000 41.213000 0.697000
-17.376000 41.244000 2.395000
-16.231000 41.247000 2.570000
-19.516000 41.246000 1.301000
-19.437000 41.244000 1.509000
-16.049000 41.212000 1.271000
-16.667000 41.255000 3.084000
-16.095000 41.254000 2.962000
-19.775000 41.251000 2.745000
-19.084000 41.239000 2.245000
-19.053000 41.239000 2.284000
-17.377000 41.254000 3.111000
-18.431000 41.229000 2.084000
-18.701000 41.217000 1.535000
-20.282000 41.259000 2.499000
-18.709000 41.218000 0.852000
-19.241000 41.218000 1.029000
-16.254000 41.205000 0.933000
-15.973000 41.233000 2.173000
-17.538000 41.249000 2.594000
-18.441000 41.243000 2.382000
-16.083000 41.210000 1.185000
-17.623000 41.224000 2.065000
-15.953000 41.230000 1.922000
-18.081000 41.224000 2.061000
-16.318000 41.231000 1.893000
-15.993000 41.226000 1.760000
-18.499000 41.239000 2.234000
-15.958000 41.203000 0.958000
-17.141000 41.190000 0.376000
-18.946000 41.219000 1.160000
-20.149000 41.257000 2.535000
-17.406000 41.243000 2.300000
-20.017000 41.255000 2.025000
-15.418000 41.215000 1.601000
-16.815000 41.245000 2.561000
-17.081000 41.215000 1.989000
-15.967000 41.254000 3.001000
-15.309000 41.188000 1.128000
-17.958000 41.245000 2.382000
-16.746000 41.219000 1.493000
-16.233000 41.216000 1.345000
-15.492000 41.203000 1.171000
-15.344000 41.219000 1.782000
-16.315000 41.223000 1.538000
-17.083000 41.234000 2.101000
-17.938000 41.218000 1.925000
-18.586000 41.241000 2.863000
-19.968000 41.254000 2.147000
-17.703000 41.251000 3.131000
-18.262000 41.210000 1.325000
-17.446000 41.195000 0.092000
-16.620000 41.234000 2.008000
-15.440000 41.206000 1.293000
-18.041000 41.243000 2.172000
-18.528000 41.216000 1.635000
-16.729000 41.244000 2.470000
-15.887000 41.231000 2.145000
-16.001000 41.213000 1.330000
-17.300000 41.253000 2.936000
-17.659000 41.209000 1.525000
-17.498000 41.224000 2.067000
-18.533000 41.241000 2.380000
-20.177000 41.257000 2.060000
-17.384000 41.200000 1.098000
-16.836000 41.255000 3.077000
-17.776000 41.247000 2.297000
-18.765000 41.217000 1.465000
-20.299000 41.260000 1.709000
-17.002000 41.184000 0.098000
-18.551000 41.220000 1.959000
-17.373000 41.245000 2.472000
-16.052000 41.217000 1.437000
-16.000000 41.233000 2.050000
-15.886000 41.223000 1.670000
-17.851000 41.205000 1.216000
-16.137000 41.199000 0.747000
-17.282000 41.251000 2.821000
-18.667000 41.209000 0.931000
-18.403000 41.245000 2.522000
-15.385000 41.210000 1.457000
-15.415000 41.221000 1.805000
-19.434000 41.242000 2.262000
-18.182000 41.218000 1.877000
-17.331000 41.253000 2.891000
-17.955000 41.253000 2.796000
-15.487000 41.228000 2.191000
-20.065000 41.220000 0.841000
-18.562000 41.240000 2.280000
-15.475000 41.194000 0.943000
-18.376000 41.246000 2.566000
-17.450000 41.214000 1.849000
-15.777000 41.229000 1.936000
-16.372000 41.255000 3.010000
-17.068000 41.255000 3.086000
-16.008000 41.214000 1.354000
-19.506000 41.244000 2.005000
-16.686000 41.253000 3.004000
-18.236000 41.249000 3.121000
-19.488000 41.243000 2.003000
-18.263000 41.230000 2.076000
-15.539000 41.207000 1.296000
-17.612000 41.247000 2.435000
-16.039000 41.255000 3.122000
-15.505000 41.217000 1.609000
-17.798000 41.216000 1.839000
-17.775000 41.216000 1.828000
-18.671000 41.240000 2.725000
-20.402000 41.257000 1.783000
-18.958000 41.219000 1.604000
-17.493000 41.215000 1.894000
-17.266000 41.246000 3.141000
-19.649000 41.248000 2.606000
-18.822000 41.237000 2.353000
-17.459000 41.253000 2.896000
-17.785000 41.246000 2.273000
-18.753000 41.217000 1.512000
-19.119000 41.218000 1.221000
-18.692000 41.232000 2.127000
-18.160000 41.208000 1.275000
-15.867000 41.238000 2.445000
-18.243000 41.216000 1.704000
-15.713000 41.211000 1.331000
-17.958000 41.205000 0.962000
-16.279000 41.235000 2.110000
-17.474000 41.204000 1.319000
-16.289000 41.253000 2.784000
-16.678000 41.233000 1.966000
-18.732000 41.215000 1.126000
-16.434000 41.202000 0.716000
-20.008000 41.255000 1.535000
-16.764000 41.210000 1.247000
-17.083000 41.207000 0.821000
-19.290000 41.218000 1.668000
-18.734000 41.237000 2.406000
-19.872000 41.253000 2.479000
-19.768000 41.250000 1.533000
-18.998000 41.219000 1.198000
-17.860000 41.247000 2.496000
-18.175000 41.242000 2.163000
-17.213000 41.219000 2.046000
-20.127000 41.257000 2.443000
-17.598000 41.250000 2.625000
-16.148000 41.255000 3.131000
-19.247000 41.240000 2.228000
-17.162000 41.214000 1.899000
-19.536000 41.244000 2.832000
-17.088000 41.196000 0.989000
-17.995000 41.201000 0.177000
-16.213000 41.254000 2.905000
-16.382000 41.254000 2.931000
-15.990000 41.247000 2.713000
-19.988000 41.255000 2.493000
-15.929000 41.203000 0.972000
-19.040000 41.239000 2.226000
-16.879000 41.204000 1.155000
-18.628000 41.221000 2.043000
-19.650000 41.248000 2.222000
-20.078000 41.255000 2.170000
-15.563000 41.219000 1.656000
-15.695000 41.229000 2.163000
-19.695000 41.248000 1.833000
-16.694000 41.241000 2.303000
-17.399000 41.197000 0.964000
-19.342000 41.241000 2.295000
-18.532000 41.211000 1.202000
-17.777000 41.205000 1.229000
-18.120000 41.217000 1.752000
-16.899000 41.200000 0.932000
-15.298000 41.193000 1.644000
-17.273000 41.196000 0.933000
-18.879000 41.219000 1.826000
-19.196000 41.218000 1.521000
-19.221000 41.240000 2.557000
-19.693000 41.248000 2.020000
-20.283000 41.260000 1.621000
-17.682000 41.208000 0.428000
-19.087000 41.218000 1.542000
-17.824000 41.210000 1.501000
-19.347000 41.241000 2.246000
-16.376000 41.225000 3.139000
-19.934000 41.253000 2.085000
-19.162000 41.218000 1.357000
-17.754000 41.209000 1.459000
-19.627000 41.247000 1.551000
-18.599000 41.212000 1.213000
-17.472000 41.253000 2.917000
-18.565000 41.239000 2.223000
-16.377000 41.237000 2.174000
-16.675000 41.232000 1.935000
-17.416000 41.206000 1.432000
-18.487000 41.225000 2.065000
-18.913000 41.219000 1.748000
-18.187000 41.244000 3.153000
-19.265000 41.218000 1.135000
-17.078000 41.213000 1.889000
-20.083000 41.256000 2.780000
-20.194000 41.258000 1.944000
-18.574000 41.218000 1.765000
-19.410000 41.242000 2.514000
-19.331000 41.234000 2.135000
-19.191000 41.218000 1.717000
-15.919000 41.230000 1.933000
-17.288000 41.202000 1.272000
-15.972000 41.238000 2.381000
-20.411000 41.239000 0.776000
-16.916000 41.218000 1.776000
-18.640000 41.239000 2.357000
-16.515000 41.252000 2.805000
-17.737000 41.248000 2.476000
-18.279000 41.216000 1.656000
-16.846000 41.224000 1.716000
-19.784000 41.251000 2.005000
-16.484000 41.228000 1.766000
-18.663000 41.239000 2.889000
-17.268000 41.205000 1.438000
-18.274000 41.248000 2.596000
-20.280000 41.259000 2.038000
-16.825000 41.232000 1.937000
-17.093000 41.214000 1.951000
-19.924000 41.253000 1.637000
-18.078000 41.207000 1.223000
-16.661000 41.251000 2.840000
-15.523000 41.224000 1.865000
-18.365000 41.211000 1.205000
-15.854000 41.244000 2.648000
-16.032000 41.197000 0.763000
-18.558000 41.217000 1.682000
-19.131000 41.239000 2.400000
-20.173000 41.222000 0.287000
-15.989000 41.208000 1.150000
-16.797000 41.241000 2.304000
-17.894000 41.220000 0.793000
-17.306000 41.211000 1.751000
-15.735000 41.219000 1.587000
-17.632000 41.250000 2.642000
-17.808000 41.210000 1.499000
-17.528000 41.249000 2.600000
-17.699000 41.198000 0.221000
-18.458000 41.238000 2.151000
-16.340000 41.229000 1.810000
-16.128000 41.244000 2.515000
-15.404000 41.210000 1.439000
-19.466000 41.243000 2.714000
-19.697000 41.249000 2.528000
-16.460000 41.256000 3.102000
-17.509000 41.203000 1.217000
-15.307000 41.219000 1.789000
-16.622000 41.234000 2.033000
-16.769000 41.209000 1.217000
-17.352000 41.253000 2.918000
-20.403000 41.249000 1.394000
-20.271000 41.256000 3.007000
-18.120000 41.207000 1.035000
-18.155000 41.252000 3.134000
-17.792000 41.250000 2.678000
-15.601000 41.206000 1.213000
-20.223000 41.258000 2.456000
-19.809000 41.251000 2.134000
-15.322000 41.199000 1.113000
-17.590000 41.238000 2.106000
-17.271000 41.204000 1.392000
-17.264000 41.243000 3.143000
-17.108000 41.212000 1.827000
-20.281000 41.258000 2.217000
-17.520000 41.214000 1.808000
-18.030000 41.206000 1.079000
-17.587000 41.256000 3.120000
-20.214000 41.259000 1.738000
-19.146000 41.240000 2.192000
-16.728000 41.212000 1.115000
-20.479000 41.260000 2.934000
-15.935000 41.218000 1.488000
-18.153000 41.242000 2.180000
-20.275000 41.260000 1.676000
-19.404000 41.242000 1.651000
-16.307000 41.229000 1.834000
-17.315000 41.247000 2.620000
-17.148000 41.244000 2.527000
-18.312000 41.217000 1.771000
-19.841000 41.252000 2.389000
-16.578000 41.204000 0.781000
-17.991000 41.204000 0.201000
-19.704000 41.249000 1.344000
-17.172000 41.210000 0.726000
-18.410000 41.212000 1.395000
-18.770000 41.220000 1.979000
-15.582000 41.203000 1.154000
-16.879000 41.249000 2.822000
-15.897000 41.250000 2.892000
-18.216000 41.216000 1.704000
-20.039000 41.256000 1.728000
-19.771000 41.204000 0.688000
-20.355000 41.251000 1.567000
-17.422000 41.220000 2.052000
-15.345000 41.192000 0.929000
-20.106000 41.256000 2.200000
-18.458000 41.246000 2.871000
-18.172000 41.253000 2.786000
-18.792000 41.220000 1.992000
-18.583000 41.216000 1.592000
-17.837000 41.207000 0.288000
-15.928000 41.245000 2.647000
-19.346000 41.230000 1.304000
-18.479000 41.217000 1.745000
-16.106000 41.245000 2.576000
-15.798000 41.202000 1.033000
-18.628000 41.238000 2.283000
-16.076000 41.234000 2.144000
-16.449000 41.238000 2.214000
-16.709000 41.247000 2.588000
-19.338000 41.228000 1.633000
-20.120000 41.257000 2.723000
-15.763000 41.229000 2.141000
-17.710000 41.202000 1.102000
-17.463000 41.213000 0.791000
-17.796000 41.219000 1.998000
-16.898000 41.209000 1.307000
-16.172000 41.232000 1.992000
-17.660000 41.221000 2.056000
-16.668000 41.246000 2.556000
-19.358000 41.231000 1.986000
-16.874000 41.201000 0.968000
-16.503000 41.228000 1.748000
-16.080000 41.197000 0.733000
-18.531000 41.228000 2.093000
-17.770000 41.248000 2.410000
-17.127000 41.210000 0.741000
-20.034000 41.253000 3.002000
-19.891000 41.253000 1.736000
-18.122000 41.243000 2.299000
-19.683000 41.249000 1.393000
-16.160000 41.235000 2.121000
-20.019000 41.255000 1.690000
-16.061000 41.196000 0.716000
-19.492000 41.244000 2.135000
-17.479000 41.247000 2.503000
-18.470000 41.220000 1.970000
-19.693000 41.248000 2.112000
-16.593000 41.254000 3.027000
-18.698000 41.216000 0.868000
-17.272000 41.244000 2.446000
-17.864000 41.255000 2.855000
-18.292000 41.219000 1.913000
-16.431000 41.254000 2.962000
-16.150000 41.235000 2.129000
-18.940000 41.219000 1.671000
-15.565000 41.208000 1.313000
-16.764000 41.242000 2.389000
-18.930000 41.219000 1.848000
-20.155000 41.257000 2.007000
-17.836000 41.248000 2.608000
-17.897000 41.250000 2.704000
-17.667000 41.250000 2.590000
-17.218000 41.252000 2.872000
-17.778000 41.218000 0.819000
-19.189000 41.218000 1.193000
-17.497000 41.200000 1.074000
-17.544000 41.206000 0.441000
-16.669000 41.222000 1.525000
-18.113000 41.236000 2.094000
-17.094000 41.177000 0.726000
-16.679000 41.222000 1.541000
-15.793000 41.244000 2.704000
-18.918000 41.219000 1.662000
-17.505000 41.254000 3.103000
-18.656000 41.229000 2.108000
-15.974000 41.254000 3.076000
-17.125000 41.193000 0.145000
-17.762000 41.247000 2.393000
-15.938000 41.225000 1.738000
-18.950000 41.213000 0.886000
-17.898000 41.256000 2.910000
-18.959000 41.219000 1.944000
-20.452000 41.226000 0.567000
-15.812000 41.219000 1.562000
-20.324000 41.259000 1.880000
-19.656000 41.248000 1.485000
-17.045000 41.209000 1.681000
-20.183000 41.257000 2.197000
-20.410000 41.252000 1.232000
-16.794000 41.248000 2.686000
-17.882000 41.205000 1.188000
-16.780000 41.247000 2.630000
-15.371000 41.197000 2.190000
-17.730000 41.198000 0.828000
-19.223000 41.240000 2.308000
-15.330000 41.196000 2.179000
-16.598000 41.229000 1.784000
-18.666000 41.239000 2.532000
-16.846000 41.255000 3.109000
-19.062000 41.238000 2.579000
-18.876000 41.236000 2.648000
-18.134000 41.219000 1.974000
-17.581000 41.255000 3.048000
-17.613000 41.253000 2.839000
-17.760000 41.256000 2.910000
-17.366000 41.243000 2.283000
-16.099000 41.254000 2.959000
-20.187000 41.258000 2.500000
-18.012000 41.211000 1.459000
-15.829000 41.213000 1.369000
-17.742000 41.248000 2.501000
-18.866000 41.238000 2.233000
-17.299000 41.241000 2.193000
-17.774000 41.202000 1.059000
-18.429000 41.211000 1.279000
-18.580000 41.209000 1.081000
-17.235000 41.199000 1.107000
-16.460000 41.209000 1.012000
-17.560000 41.211000 1.635000
-17.049000 41.254000 3.029000
-17.406000 41.253000 2.911000
-18.302000 41.212000 1.386000
-16.800000 41.221000 1.601000
-17.188000 41.210000 0.727000
-16.296000 41.215000 1.272000
-16.874000 41.223000 1.727000
-16.462000 41.235000 2.064000
-18.726000 41.211000 0.930000
-17.433000 41.212000 1.763000
-17.842000 41.224000 2.063000
-17.378000 41.192000 0.526000
-17.007000 41.253000 2.951000
-19.468000 41.244000 1.770000
-15.466000 41.187000 0.730000
-17.047000 41.242000 2.413000
-17.823000 41.248000 2.624000
-17.901000 41.184000 0.888000
-16.190000 41.254000 2.909000
-15.958000 41.254000 3.049000
-16.465000 41.250000 2.684000
-17.701000 41.257000 3.059000
-18.601000 41.215000 1.481000
-19.462000 41.243000 2.330000
-16.567000 41.234000 2.025000
-16.998000 41.208000 1.660000
-18.122000 41.244000 2.364000
-16.892000 41.253000 2.967000
-16.702000 41.208000 0.824000
-16.895000 41.211000 0.762000
-19.997000 41.255000 2.048000
-16.633000 41.244000 3.146000
-18.836000 41.236000 2.629000
-16.367000 41.250000 2.636000
-20.026000 41.255000 1.721000
-17.937000 41.194000 0.119000
-19.355000 41.231000 1.741000
-17.997000 41.205000 0.987000
-16.621000 41.211000 1.013000
-17.244000 41.209000 1.640000
-17.764000 41.214000 1.713000
-19.753000 41.230000 0.726000
-16.566000 41.248000 2.615000
-18.485000 41.217000 1.752000
-18.621000 41.218000 1.686000
-20.402000 41.259000 2.973000
-17.095000 41.200000 1.186000
-18.800000 41.238000 2.217000
-15.908000 41.205000 1.073000
-16.983000 41.209000 1.716000
-15.646000 41.229000 2.061000
-17.362000 41.211000 0.745000
-18.279000 41.251000 2.977000
-19.640000 41.248000 2.573000
-18.769000 41.237000 2.378000
-17.665000 41.208000 0.445000
-16.146000 41.205000 0.977000
-16.131000 41.240000 2.364000
-15.467000 41.211000 1.441000
-17.102000 41.195000 0.911000
-18.974000 41.219000 1.842000
-15.733000 41.196000 0.879000
-17.217000 41.254000 2.956000
-19.548000 41.246000 1.324000
-16.647000 41.231000 1.861000
-17.150000 41.210000 0.757000
-16.992000 41.244000 2.554000
-19.501000 41.244000 1.681000
-17.709000 41.246000 2.278000
-15.949000 41.236000 2.313000
-17.315000 41.254000 3.051000
-18.544000 41.244000 2.800000
-15.960000 41.238000 2.406000
-15.637000 41.229000 2.166000
-16.177000 41.204000 0.935000
-19.468000 41.244000 1.344000
-18.129000 41.202000 0.103000
-16.540000 41.220000 1.373000
-18.716000 41.237000 2.373000
-18.763000 41.236000 2.157000
-17.566000 41.210000 1.576000
-17.367000 41.254000 3.096000
-19.663000 41.248000 2.185000
-18.930000 41.237000 2.550000
-20.158000 41.257000 2.035000
-16.532000 41.251000 2.776000
-17.489000 41.244000 2.270000
-20.262000 41.259000 1.952000
-17.692000 41.248000 2.458000
-17.739000 41.191000 0.104000
-20.496000 41.260000 2.754000
-18.438000 41.214000 1.473000
-18.300000 41.241000 2.262000
-17.425000 41.247000 2.527000
-15.411000 41.201000 1.155000
-19.948000 41.255000 2.603000
-16.043000 41.231000 1.948000
-18.717000 41.220000 1.793000
-19.587000 41.246000 1.625000
-16.016000 41.202000 0.927000
-17.753000 41.256000 2.911000
-20.386000 41.258000 1.860000
-19.834000 41.252000 2.341000
-19.440000 41.243000 2.532000
-17.254000 41.240000 2.126000
-15.467000 41.204000 1.220000
-18.570000 41.209000 1.094000
-20.030000 41.253000 2.951000
-16.057000 41.251000 2.822000
-19.138000 41.239000 2.543000
-16.140000 41.243000 2.491000
-20.405000 41.261000 2.623000
-16.035000 41.248000 2.736000
-17.167000 41.195000 0.916000
-16.047000 41.210000 1.179000
-15.982000 41.232000 2.062000
-19.483000 41.244000 2.283000
-16.852000 41.203000 1.108000
-15.499000 41.199000 1.053000
-15.915000 41.231000 1.981000
-17.436000 41.222000 2.060000
-20.406000 41.259000 2.893000
-20.229000 41.259000 1.637000
-16.290000 41.255000 3.114000
-17.377000 41.254000 3.089000
-17.659000 41.207000 1.419000
-17.055000 41.254000 3.019000
-20.491000 41.255000 1.883000
-18.791000 41.214000 0.961000
-17.613000 41.250000 2.623000
-18.177000 41.244000 2.437000
-18.141000 41.255000 2.914000
-20.019000 41.255000 1.722000
-19.580000 41.246000 2.121000
-15.859000 41.230000 2.024000
-16.366000 41.246000 2.488000
-19.911000 41.253000 1.953000
-18.142000 41.207000 1.005000
-16.268000 41.226000 1.709000
-18.288000 41.248000 2.572000
-18.031000 41.234000 2.091000
-20.309000 41.258000 1.643000
-16.340000 41.253000 2.808000
-17.445000 41.209000 1.578000
-16.848000 41.206000 0.947000
-18.322000 41.250000 2.931000
-15.970000 41.207000 1.122000
-19.687000 41.248000 1.586000
-17.395000 41.183000 0.570000
-16.024000 41.239000 2.372000
-19.455000 41.243000 1.813000
-16.851000 41.243000 2.464000
-19.988000 41.254000 2.019000
-17.347000 41.212000 1.762000
-15.299000 41.181000 1.594000
-16.874000 41.238000 2.190000
-17.163000 41.180000 0.598000
-19.693000 41.249000 2.294000
-19.833000 41.252000 1.771000
-17.776000 41.212000 1.615000
-16.845000 41.235000 2.060000
-18.761000 41.237000 2.310000
-17.601000 41.249000 2.590000
-16.554000 41.226000 1.657000
-19.266000 41.240000 2.249000
-18.143000 41.253000 2.770000
-19.653000 41.247000 2.847000
-15.560000 41.229000 2.144000
-19.065000 41.219000 1.120000
-16.465000 41.255000 3.053000
-16.007000 41.203000 0.948000
-18.025000 41.243000 2.173000
-18.659000 41.221000 1.897000
-17.854000 41.260000 3.059000
-17.411000 41.242000 2.157000
-16.788000 41.206000 1.126000
-18.717000 41.220000 1.911000
-16.772000 41.250000 2.857000
-17.346000 41.204000 1.331000
-16.552000 41.207000 0.900000
-20.154000 41.258000 1.759000
-15.580000 41.219000 1.648000
-16.312000 41.244000 2.433000
-17.011000 41.227000 2.076000
-19.802000 41.252000 2.551000
-15.645000 41.229000 2.042000
-18.374000 41.243000 2.395000
-16.608000 41.223000 1.503000
-15.921000 41.252000 2.958000
-18.351000 41.246000 3.136000
-16.115000 41.199000 0.774000
-17.174000 41.255000 3.132000
-16.375000 41.250000 2.638000
-15.420000 41.188000 0.776000
-17.440000 41.182000 0.525000
-16.145000 41.245000 2.540000
-15.453000 41.198000 1.047000
-17.706000 41.208000 0.414000
-18.411000 41.239000 2.160000
-15.858000 41.241000 2.566000
-17.882000 41.247000 2.506000
-18.888000 41.218000 1.232000
-15.373000 41.214000 1.564000
-19.424000 41.244000 1.328000
-16.958000 41.234000 2.101000
-18.577000 41.215000 1.534000
-16.148000 41.222000 1.566000
-16.592000 41.248000 2.597000
-17.397000 41.251000 2.763000
-19.261000 41.240000 2.483000
-16.328000 41.247000 2.536000
-18.170000 41.244000 2.400000
-15.920000 41.232000 2.211000
-15.546000 41.192000 0.847000
-19.490000 41.244000 2.644000
-17.217000 41.214000 1.901000
-16.293000 41.254000 2.882000
-16.947000 41.255000 3.055000
-15.842000 41.242000 2.583000
-20.162000 41.257000 2.368000
-16.395000 41.229000 1.822000
-18.382000 41.213000 1.419000
-17.176000 41.212000 1.796000
-16.691000 41.252000 2.954000
-17.817000 41.202000 0.915000
-16.741000 41.250000 2.797000
-19.720000 41.249000 1.741000
-18.903000 41.219000 1.132000
-16.343000 41.240000 2.290000
-17.441000 41.242000 2.178000
-20.351000 41.258000 1.896000
-17.173000 41.208000 1.623000
-20.170000 41.256000 2.859000
-17.695000 41.207000 1.359000
-15.585000 41.198000 1.011000
-17.624000 41.244000 2.182000
-16.150000 41.238000 2.294000
-19.347000 41.231000 0.906000
-15.984000 41.227000 1.808000
-16.447000 41.215000 1.246000
-19.133000 41.239000 2.359000
-15.967000 41.220000 1.565000
-17.663000 41.208000 1.461000
-16.368000 41.212000 1.138000
-16.518000 41.249000 2.627000
-18.772000 41.218000 1.535000
-15.784000 41.251000 2.978000
-17.792000 41.248000 2.465000
-17.108000 41.240000 2.203000
-15.658000 41.206000 1.212000
-18.763000 41.237000 2.339000
-16.518000 41.246000 2.487000
-15.402000 41.218000 1.697000
-15.530000 41.190000 0.777000
-16.255000 41.214000 1.279000
-19.228000 41.218000 1.513000
-17.798000 41.248000 2.529000
-19.426000 41.242000 2.793000
-17.828000 41.228000 2.073000
-20.403000 41.260000 2.762000
-17.321000 41.254000 3.043000
-18.197000 41.247000 2.547000
-19.143000 41.240000 2.271000
-20.466000 41.220000 0.921000
-16.990000 41.205000 1.465000
-19.761000 41.251000 2.648000
-19.412000 41.242000 2.106000
-18.746000 41.237000 2.315000
-19.849000 41.252000 1.894000
-17.271000 41.253000 2.885000
-18.256000 41.245000 2.469000
-17.184000 41.213000 1.881000
-20.449000 41.254000 2.221000
-18.742000 41.220000 1.897000
-20.461000 41.216000 0.574000
-15.672000 41.194000 0.836000
-17.149000 41.205000 1.435000
-17.907000 41.220000 0.821000
-17.380000 41.242000 2.182000
