-17.056000 36.819000 2.543000
-17.829000 36.846000 0.387000
-15.939000 36.828000 1.976000
-19.098000 36.862000 0.984000
-18.508000 36.848000 0.571000
-19.513000 36.813000 3.062000
-19.419000 36.816000 2.543000
-19.723000 36.835000 1.278000
-17.914000 36.814000 2.696000
-16.681000 36.828000 1.458000
-17.962000 36.856000 0.232000
-16.999000 36.828000 2.089000
-19.973000 36.833000 1.645000
-18.219000 36.828000 2.160000
-17.707000 36.838000 0.694000
-18.054000 36.846000 0.350000
-18.884000 36.850000 1.241000
-19.986000 36.822000 2.507000
-16.849000 36.827000 1.223000
-19.588000 36.832000 1.783000
-19.274000 36.810000 2.963000
-17.533000 36.842000 0.418000
-18.027000 36.843000 1.425000
-15.426000 36.827000 1.263000
-19.316000 36.817000 2.281000
-19.899000 36.813000 3.142000
-16.052000 36.823000 1.816000
-17.225000 36.850000 1.682000
-18.438000 36.845000 1.936000
-16.422000 36.825000 1.485000
-19.939000 36.840000 1.044000
-16.173000 36.825000 1.401000
-16.716000 36.826000 1.160000
-17.497000 36.848000 0.140000
-19.659000 36.836000 1.092000
-17.873000 36.841000 1.668000
-16.529000 36.823000 2.226000
-19.902000 36.819000 2.724000
-18.563000 36.840000 0.824000
-17.176000 36.851000 1.710000
-16.901000 36.822000 2.377000
-18.706000 36.845000 1.493000
-17.894000 36.841000 1.642000
-18.619000 36.849000 0.610000
-20.027000 36.822000 2.569000
-17.886000 36.817000 2.295000
-18.956000 36.843000 1.767000
-19.368000 36.813000 2.777000
-18.877000 36.862000 0.343000
-20.268000 36.842000 1.341000
-19.673000 36.833000 1.353000
-19.606000 36.834000 1.445000
-20.483000 36.844000 1.734000
-19.272000 36.837000 2.129000
-18.304000 36.844000 0.595000
-17.672000 36.848000 1.043000
-19.609000 36.835000 1.160000
-16.068000 36.826000 2.902000
-18.756000 36.841000 1.710000
-20.418000 36.836000 2.434000
-18.189000 36.814000 2.426000
-17.826000 36.850000 0.188000
-16.104000 36.824000 1.926000
-18.143000 36.814000 3.136000
-16.374000 36.821000 2.382000
-19.716000 36.818000 2.504000
-15.859000 36.830000 2.302000
-18.731000 36.847000 1.331000
-18.456000 36.845000 1.400000
-17.195000 36.846000 2.090000
-16.183000 36.826000 3.142000
-18.045000 36.813000 3.012000
-17.082000 36.842000 0.283000
-16.877000 36.829000 1.559000
-19.391000 36.844000 1.986000
-18.847000 36.843000 1.669000
-18.487000 36.814000 2.332000
-18.377000 36.845000 0.117000
-18.651000 36.850000 0.582000
-18.139000 36.846000 2.069000
-18.402000 36.841000 0.786000
-18.209000 36.842000 1.591000
-18.497000 36.851000 1.107000
-18.467000 36.808000 2.939000
-16.962000 36.818000 2.983000
-17.280000 36.849000 1.673000
-17.415000 36.817000 2.566000
-20.148000 36.878000 0.388000
-16.571000 36.823000 2.291000
-18.228000 36.812000 3.079000
-17.619000 36.842000 1.629000
-15.812000 36.829000 2.783000
-17.467000 36.841000 0.412000
-17.502000 36.852000 2.096000
-20.047000 36.818000 3.079000
-19.681000 36.834000 1.413000
-16.706000 36.831000 0.760000
-19.651000 36.831000 1.788000
-18.936000 36.842000 0.824000
-20.184000 36.825000 2.921000
-16.829000 36.822000 3.057000
-18.875000 36.843000 1.660000
-20.171000 36.834000 1.878000
-17.222000 36.817000 2.746000
-17.566000 36.844000 1.474000
-16.757000 36.828000 1.570000
-20.420000 36.837000 2.641000
-15.885000 36.824000 1.362000
-20.452000 36.841000 1.925000
-17.680000 36.842000 1.610000
-16.697000 36.821000 2.587000
-17.191000 36.853000 1.259000
-18.749000 36.811000 2.903000
-16.293000 36.823000 1.722000
-19.316000 36.818000 2.212000
-20.349000 36.845000 1.109000
-18.883000 36.846000 2.088000
-17.142000 36.837000 0.547000
-20.363000 36.834000 2.517000
-18.102000 36.852000 0.845000
-17.856000 36.848000 0.291000
-18.454000 36.808000 2.946000
-15.984000 36.830000 3.091000
-19.185000 36.863000 1.021000
-16.423000 36.825000 1.447000
-18.298000 36.811000 2.899000
-18.532000 36.845000 0.716000
-17.126000 36.819000 2.488000
-19.725000 36.838000 0.977000
-19.106000 36.852000 1.284000
-17.108000 36.848000 1.959000
-20.425000 36.839000 2.006000
-19.185000 36.850000 1.462000
-19.089000 36.851000 1.328000
-17.066000 36.817000 2.743000
-16.751000 36.823000 2.247000
-20.450000 36.842000 1.788000
-17.653000 36.818000 3.139000
-16.942000 36.841000 1.294000
-19.196000 36.862000 1.030000
-18.200000 36.815000 2.260000
-17.243000 36.836000 0.554000
-17.228000 36.860000 0.870000
-18.610000 36.842000 1.586000
-17.669000 36.816000 2.580000
-20.393000 36.836000 2.768000
-17.947000 36.824000 3.156000
-19.759000 36.816000 2.989000
-18.328000 36.810000 3.034000
-16.805000 36.828000 1.601000
-16.151000 36.827000 3.134000
-18.170000 36.851000 1.176000
-17.821000 36.851000 0.156000
-15.806000 36.855000 0.532000
-17.573000 36.816000 2.903000
-19.400000 36.842000 2.022000
-19.664000 36.835000 1.178000
-18.222000 36.846000 0.426000
-19.724000 36.825000 1.997000
-17.542000 36.856000 0.852000
-17.135000 36.817000 2.760000
-17.455000 36.846000 1.444000
-18.507000 36.864000 0.109000
-16.553000 36.826000 1.511000
-15.414000 36.829000 1.937000
-19.353000 36.866000 1.087000
-15.552000 36.835000 2.185000
-16.278000 36.825000 3.131000
-19.038000 36.852000 1.228000
-15.779000 36.843000 0.760000
-18.120000 36.847000 1.320000
-18.049000 36.814000 2.505000
-16.971000 36.821000 2.193000
-19.899000 36.838000 1.155000
-19.396000 36.843000 1.692000
-18.570000 36.845000 1.388000
-16.719000 36.820000 2.730000
-17.673000 36.818000 2.256000
-18.465000 36.841000 1.622000
-16.731000 36.826000 1.887000
-17.208000 36.833000 0.643000
-17.214000 36.845000 0.172000
-18.552000 36.813000 2.470000
-17.547000 36.818000 2.386000
-16.684000 36.821000 3.001000
-20.019000 36.823000 2.419000
-18.083000 36.813000 2.936000
-19.160000 36.850000 1.495000
-17.873000 36.815000 2.474000
-19.064000 36.811000 2.739000
-17.859000 36.843000 0.507000
-18.432000 36.841000 1.590000
-18.660000 36.809000 2.859000
-18.098000 36.855000 1.058000
-16.556000 36.829000 0.944000
-19.597000 36.836000 1.056000
-18.398000 36.843000 0.707000
-18.666000 36.858000 0.337000
-16.812000 36.839000 0.242000
-20.071000 36.826000 2.260000
-16.956000 36.821000 2.133000
-16.340000 36.822000 2.459000
-19.080000 36.843000 1.943000
-16.051000 36.824000 1.841000
-15.986000 36.827000 2.757000
-19.806000 36.815000 3.040000
-18.166000 36.813000 3.130000
-20.168000 36.870000 0.165000
-16.792000 36.831000 0.784000
-16.745000 36.836000 0.359000
-19.001000 36.848000 1.461000
-20.224000 36.828000 2.654000
-18.375000 36.810000 2.846000
-17.116000 36.834000 0.612000
-15.737000 36.826000 1.696000
-18.656000 36.810000 2.809000
-18.222000 36.814000 2.522000
-17.761000 36.815000 2.627000
-20.379000 36.845000 1.183000
-19.233000 36.848000 0.819000
-17.673000 36.838000 0.711000
-20.131000 36.840000 1.268000
-16.834000 36.835000 0.499000
-16.170000 36.823000 1.721000
-19.186000 36.840000 1.836000
-16.360000 36.822000 1.908000
-17.262000 36.849000 1.701000
-15.819000 36.830000 2.535000
-18.884000 36.843000 1.928000
-18.965000 36.815000 2.334000
-19.387000 36.852000 1.600000
-15.467000 36.833000 1.648000
-16.219000 36.825000 2.852000
-18.047000 36.876000 0.105000
-18.385000 36.845000 1.965000
-18.746000 36.812000 3.131000
-20.353000 36.837000 1.988000
-18.181000 36.839000 0.724000
-15.574000 36.836000 2.229000
-16.823000 36.843000 0.102000
-17.034000 36.820000 2.434000
-19.848000 36.817000 2.911000
-18.481000 36.861000 0.167000
-16.180000 36.825000 2.796000
-16.640000 36.827000 1.387000
-15.800000 36.830000 2.638000
-15.650000 36.830000 1.923000
-20.164000 36.832000 2.028000
-20.106000 36.827000 2.241000
-19.754000 36.835000 1.273000
-18.179000 36.813000 2.659000
-17.637000 36.841000 1.824000
-18.784000 36.847000 1.348000
-16.728000 36.819000 2.858000
-15.885000 36.829000 1.978000
-17.854000 36.814000 2.653000
-17.340000 36.842000 0.374000
-20.008000 36.830000 1.896000
-18.265000 36.838000 0.797000
-18.645000 36.847000 1.304000
-17.563000 36.843000 1.537000
-17.344000 36.842000 0.402000
-18.096000 36.845000 0.422000
-17.670000 36.849000 0.155000
-20.492000 36.845000 1.659000
-19.621000 36.832000 1.756000
-17.714000 36.847000 0.257000
-16.808000 36.827000 1.293000
-18.747000 36.847000 0.719000
-17.941000 36.842000 1.815000
-20.283000 36.839000 1.752000
-20.167000 36.841000 1.249000
-15.569000 36.828000 1.601000
-18.998000 36.810000 2.750000
-18.461000 36.841000 1.596000
-15.975000 36.829000 2.039000
-19.941000 36.831000 1.807000
-19.304000 36.852000 1.596000
-19.650000 36.840000 0.824000
-16.323000 36.824000 1.513000
-16.287000 36.824000 3.004000
-19.600000 36.813000 3.103000
-18.654000 36.809000 2.827000
-16.891000 36.829000 1.607000
-17.124000 36.841000 0.376000
-19.013000 36.847000 1.492000
-18.409000 36.846000 0.593000
-16.594000 36.829000 0.992000
-16.087000 36.825000 2.225000
-16.274000 36.824000 2.814000
-20.273000 36.830000 2.865000
-17.544000 36.847000 0.221000
-17.404000 36.835000 0.667000
-18.881000 36.864000 0.266000
-17.001000 36.856000 1.056000
-18.084000 36.837000 0.827000
-16.759000 36.825000 2.027000
-15.953000 36.827000 1.916000
-18.677000 36.841000 1.781000
-19.611000 36.821000 2.167000
-15.474000 36.828000 1.733000
-19.173000 36.815000 2.443000
-19.037000 36.846000 2.061000
-18.647000 36.848000 1.251000
-19.730000 36.836000 1.235000
-19.142000 36.854000 1.170000
-19.629000 36.813000 3.095000
-19.409000 36.841000 1.944000
-18.844000 36.841000 1.848000
-15.631000 36.827000 1.625000
-16.845000 36.824000 2.173000
-17.364000 36.850000 2.029000
-17.170000 36.841000 0.360000
-20.023000 36.843000 0.905000
-20.069000 36.823000 2.538000
-19.681000 36.813000 3.094000
-18.434000 36.850000 1.123000
-17.709000 36.854000 0.947000
-17.722000 36.850000 2.101000
-17.599000 36.817000 2.445000
-15.878000 36.828000 2.838000
-18.347000 36.847000 1.242000
-18.249000 36.841000 0.692000
-19.207000 36.843000 1.728000
-20.060000 36.833000 1.783000
-16.071000 36.826000 1.979000
-20.030000 36.843000 0.939000
-18.035000 36.815000 3.095000
-17.248000 36.853000 1.953000
-17.400000 36.839000 0.488000
-20.052000 36.826000 2.227000
-19.948000 36.841000 0.987000
-15.731000 36.835000 2.157000
-18.552000 36.852000 1.052000
-15.890000 36.826000 1.781000
-16.131000 36.824000 2.067000
-18.084000 36.813000 2.813000
-15.837000 36.830000 2.439000
-17.950000 36.819000 3.103000
-18.371000 36.857000 0.202000
-19.682000 36.817000 2.722000
-20.399000 36.840000 1.899000
-15.628000 36.830000 1.914000
-16.345000 36.822000 2.348000
-17.530000 36.843000 1.686000
-18.859000 36.815000 2.314000
-18.264000 36.846000 0.464000
-20.056000 36.839000 1.271000
-20.231000 36.832000 2.119000
-20.436000 36.837000 2.268000
-19.390000 36.856000 1.259000
-16.320000 36.822000 1.886000
-15.895000 36.829000 2.494000
-19.260000 36.852000 1.408000
-15.436000 36.828000 1.960000
-16.377000 36.824000 1.631000
-18.446000 36.867000 0.963000
-19.423000 36.839000 1.835000
-19.214000 36.808000 3.156000
-18.921000 36.828000 2.156000
-19.932000 36.816000 3.021000
-16.787000 36.826000 1.933000
-20.225000 36.829000 2.480000
-20.457000 36.841000 1.937000
-17.090000 36.816000 2.849000
-17.831000 36.819000 3.094000
-18.032000 36.842000 1.555000
-16.700000 36.827000 1.695000
-17.752000 36.841000 1.756000
-16.408000 36.827000 3.141000
-20.326000 36.845000 1.099000
-18.531000 36.870000 0.883000
-18.608000 36.854000 0.392000
-18.386000 36.846000 0.546000
-17.260000 36.816000 2.820000
-19.523000 36.836000 0.992000
-19.527000 36.834000 1.489000
-20.132000 36.870000 0.104000
-18.460000 36.814000 2.343000
-19.796000 36.834000 1.416000
-20.162000 36.826000 2.765000
-16.519000 36.824000 1.820000
-17.936000 36.822000 3.122000
-19.256000 36.815000 2.545000
-18.108000 36.843000 1.832000
-19.806000 36.818000 2.657000
-17.300000 36.848000 1.810000
-17.904000 36.816000 2.348000
-17.985000 36.817000 2.190000
-19.708000 36.817000 2.645000
-18.158000 36.838000 0.760000
-18.008000 36.814000 2.967000
-17.621000 36.841000 1.802000
-15.815000 36.824000 1.395000
-19.132000 36.850000 1.411000
-17.227000 36.852000 0.983000
-17.280000 36.850000 1.417000
-16.105000 36.825000 2.658000
-16.806000 36.839000 0.244000
-18.700000 36.813000 2.600000
-18.628000 36.813000 2.655000
-18.926000 36.854000 1.012000
-16.785000 36.828000 1.573000
-18.691000 36.809000 2.812000
-18.651000 36.864000 0.181000
-16.375000 36.823000 2.881000
-18.882000 36.840000 1.837000
-18.623000 36.853000 0.450000
-20.487000 36.846000 3.144000
-16.000000 36.825000 1.312000
-18.777000 36.845000 0.757000
-16.889000 36.828000 1.355000
-19.311000 36.812000 2.771000
-15.835000 36.825000 1.628000
-16.026000 36.825000 1.518000
-18.204000 36.850000 0.159000
-18.265000 36.852000 0.247000
-17.471000 36.816000 2.630000
-17.822000 36.815000 2.510000
-18.791000 36.813000 2.962000
-16.180000 36.823000 2.203000
-16.730000 36.827000 1.666000
-16.077000 36.826000 2.335000
-18.555000 36.807000 2.967000
-19.338000 36.817000 2.300000
-16.950000 36.850000 1.760000
-17.180000 36.842000 0.340000
-17.209000 36.817000 3.159000
-18.535000 36.850000 0.516000
-18.910000 36.842000 0.850000
-15.385000 36.856000 1.653000
-16.161000 36.826000 3.017000
-17.704000 36.840000 1.834000
-16.341000 36.822000 2.013000
-17.236000 36.832000 0.716000
-18.773000 36.841000 1.735000
-17.319000 36.850000 1.205000
-19.242000 36.809000 3.054000
-17.651000 36.837000 0.735000
-18.032000 36.842000 1.635000
-16.641000 36.828000 3.137000
-17.597000 36.816000 2.527000
-20.324000 36.830000 2.970000
-18.305000 36.846000 0.481000
-19.726000 36.821000 2.285000
-18.974000 36.840000 1.788000
-19.185000 36.850000 1.484000
-16.684000 36.830000 0.876000
-19.538000 36.837000 0.866000
-19.744000 36.832000 1.721000
-18.266000 36.812000 2.816000
-18.397000 36.851000 0.365000
-19.368000 36.818000 2.164000
-19.803000 36.820000 2.396000
-17.963000 36.852000 1.127000
-15.944000 36.829000 3.032000
-17.373000 36.816000 2.801000
-18.430000 36.854000 0.306000
-18.976000 36.844000 1.992000
-18.305000 36.846000 1.314000
-18.822000 36.851000 1.167000
-19.073000 36.862000 0.970000
-17.145000 36.818000 2.646000
-15.456000 36.827000 1.802000
-17.714000 36.816000 2.554000
-17.657000 36.845000 1.241000
-17.707000 36.841000 1.701000
-19.790000 36.826000 1.987000
-15.819000 36.830000 2.412000
-18.181000 36.843000 1.682000
-17.595000 36.818000 2.306000
-18.979000 36.840000 1.813000
-17.074000 36.855000 0.884000
-16.171000 36.825000 1.207000
-17.189000 36.844000 0.223000
-19.883000 36.838000 1.187000
-20.221000 36.836000 1.835000
-17.935000 36.841000 1.632000
-18.339000 36.811000 3.141000
-20.321000 36.832000 2.500000
-17.629000 36.842000 1.678000
-17.046000 36.816000 2.971000
-19.688000 36.820000 2.295000
-19.207000 36.814000 2.541000
-20.274000 36.831000 2.454000
-17.381000 36.841000 2.131000
-18.801000 36.852000 0.629000
-18.993000 36.840000 1.787000
-18.019000 36.840000 0.642000
-18.288000 36.815000 2.259000
-20.257000 36.830000 2.853000
-17.028000 36.836000 0.580000
-18.017000 36.840000 0.669000
-19.951000 36.840000 1.098000
-18.930000 36.843000 1.693000
-18.709000 36.852000 0.574000
-17.709000 36.842000 0.544000
-18.361000 36.845000 1.952000
-17.878000 36.842000 1.619000
-19.515000 36.833000 1.302000
-18.245000 36.831000 2.153000
-18.182000 36.814000 2.624000
-18.112000 36.856000 1.008000
-17.345000 36.850000 1.199000
-15.957000 36.832000 3.151000
-19.354000 36.865000 1.094000
-19.054000 36.847000 1.586000
-17.304000 36.842000 0.395000
-19.397000 36.817000 2.287000
-15.852000 36.831000 2.068000
-20.047000 36.844000 0.822000
-17.066000 36.855000 0.996000
-19.717000 36.823000 2.106000
-15.732000 36.854000 0.779000
-19.112000 36.852000 1.291000
-16.380000 36.822000 2.722000
-20.107000 36.828000 2.206000
-20.336000 36.852000 0.815000
-18.458000 36.854000 0.325000
-16.382000 36.823000 2.993000
-19.131000 36.851000 1.341000
-16.007000 36.826000 2.548000
-19.240000 36.815000 2.467000
-15.451000 36.832000 0.916000
-16.506000 36.828000 1.065000
-17.136000 36.854000 1.826000
-20.280000 36.845000 1.027000
-17.345000 36.838000 0.484000
-17.760000 36.841000 1.780000
-17.371000 36.819000 2.365000
-18.299000 36.838000 0.820000
-18.609000 36.842000 1.605000
-17.600000 36.844000 1.364000
-19.325000 36.846000 2.045000
-19.276000 36.812000 2.794000
-18.621000 36.842000 1.825000
-18.992000 36.852000 1.146000
-19.497000 36.813000 3.088000
-17.404000 36.819000 2.326000
-16.545000 36.823000 2.126000
-19.710000 36.826000 1.872000
-18.206000 36.848000 1.260000
-18.173000 36.845000 0.421000
-19.153000 36.862000 1.009000
-19.871000 36.835000 1.398000
-15.802000 36.824000 1.428000
-18.140000 36.846000 0.385000
-18.171000 36.844000 2.032000
-19.073000 36.848000 1.505000
-19.680000 36.834000 1.508000
-16.545000 36.825000 3.084000
-18.057000 36.843000 1.995000
-19.976000 36.832000 1.733000
-20.282000 36.849000 0.826000
-18.876000 36.864000 0.285000
-19.184000 36.814000 2.495000
-16.974000 36.837000 0.506000
-16.212000 36.823000 1.681000
-19.446000 36.818000 2.183000
-18.075000 36.839000 0.703000
-17.500000 36.817000 2.576000
-16.423000 36.825000 1.456000
-20.097000 36.838000 1.465000
-16.964000 36.822000 2.301000
-16.730000 36.831000 0.776000
-20.450000 36.842000 1.794000
-20.016000 36.821000 2.671000
-17.572000 36.842000 1.675000
-15.880000 36.825000 1.460000
-18.866000 36.844000 0.777000
-19.901000 36.825000 2.194000
-19.128000 36.850000 1.379000
-18.408000 36.814000 2.426000
-18.616000 36.808000 2.881000
-17.964000 36.820000 3.114000
-17.229000 36.851000 1.850000
-18.459000 36.845000 2.002000
-19.138000 36.845000 0.815000
-18.872000 36.813000 2.498000
-16.587000 36.826000 1.164000
-16.654000 36.827000 1.284000
-20.205000 36.844000 0.991000
-18.921000 36.843000 1.748000
-18.491000 36.843000 1.816000
-20.450000 36.845000 1.391000
-17.820000 36.844000 1.378000
-19.639000 36.815000 2.986000
-15.523000 36.826000 1.312000
-18.501000 36.845000 2.061000
-16.766000 36.839000 0.239000
-15.949000 36.830000 2.135000
-17.648000 36.840000 1.856000
-18.293000 36.846000 1.315000
-16.586000 36.821000 2.559000
-17.439000 36.849000 2.036000
-20.011000 36.830000 1.932000
-19.276000 36.852000 1.494000
-16.380000 36.822000 1.939000
-16.528000 36.822000 2.610000
-16.225000 36.822000 2.039000
-16.040000 36.827000 2.838000
-20.217000 36.841000 1.288000
-18.514000 36.849000 0.553000
-17.026000 36.847000 1.891000
-19.194000 36.852000 1.345000
-18.041000 36.813000 2.990000
-18.681000 36.813000 2.626000
-16.894000 36.836000 0.495000
-18.155000 36.847000 0.335000
-19.250000 36.866000 1.034000
-20.057000 36.819000 2.998000
-19.246000 36.816000 2.339000
-16.009000 36.828000 3.031000
-15.537000 36.825000 1.708000
-17.606000 36.818000 2.344000
-16.819000 36.827000 1.258000
-18.521000 36.851000 1.079000
-19.310000 36.844000 2.000000
-16.696000 36.827000 1.272000
-15.429000 36.834000 1.127000
-19.666000 36.839000 0.883000
-19.189000 36.856000 1.073000
-18.395000 36.842000 1.518000
-17.747000 36.815000 2.877000
-19.395000 36.815000 2.585000
-17.120000 36.854000 1.326000
-17.973000 36.867000 0.857000
-18.035000 36.856000 0.229000
-17.681000 36.842000 0.496000
-15.797000 36.832000 2.036000
-17.519000 36.849000 0.948000
-16.591000 36.820000 2.986000
-16.029000 36.826000 1.954000
-18.915000 36.812000 2.649000
-20.365000 36.832000 3.018000
-15.364000 36.840000 1.040000
-18.649000 36.813000 2.485000
-15.874000 36.826000 1.746000
-16.320000 36.822000 2.038000
-16.736000 36.826000 1.843000
-17.182000 36.851000 1.716000
-18.654000 36.855000 0.979000
-17.511000 36.816000 2.941000
-17.249000 36.817000 2.694000
-17.249000 36.834000 0.627000
-17.480000 36.816000 2.670000
-18.315000 36.814000 2.504000
-18.162000 36.844000 0.467000
-18.716000 36.814000 2.348000
-20.404000 36.835000 2.978000
-16.820000 36.821000 2.438000
-19.301000 36.811000 2.953000
-20.447000 36.838000 2.253000
-18.177000 36.850000 1.203000
-16.503000 36.823000 2.019000
-19.597000 36.836000 1.645000
-18.728000 36.845000 1.496000
-16.404000 36.824000 3.096000
-16.364000 36.824000 1.611000
-19.147000 36.846000 2.077000
-17.024000 36.842000 1.970000
-18.767000 36.841000 1.727000
-16.080000 36.827000 3.091000
-17.475000 36.846000 0.256000
-18.436000 36.819000 2.180000
-18.826000 36.860000 0.369000
-15.566000 36.829000 1.603000
-20.293000 36.873000 0.270000
-19.277000 36.853000 1.317000
-18.257000 36.814000 2.349000
-16.451000 36.822000 2.903000
-16.832000 36.833000 0.630000
-18.497000 36.812000 2.725000
-20.138000 36.825000 2.583000
-16.942000 36.840000 1.213000
-18.727000 36.850000 0.652000
-20.049000 36.822000 2.603000
-16.172000 36.825000 1.425000
-15.951000 36.827000 2.766000
-16.219000 36.825000 2.896000
-17.050000 36.855000 1.521000
-17.994000 36.842000 0.553000
-17.400000 36.846000 0.218000
-17.892000 36.814000 2.700000
-18.597000 36.847000 0.666000
-17.995000 36.815000 2.474000
-17.821000 36.815000 2.594000
-15.977000 36.825000 1.329000
-19.987000 36.816000 3.136000
-18.795000 36.845000 1.497000
-19.417000 36.835000 2.108000
-18.600000 36.813000 2.528000
-19.222000 36.817000 2.216000
-19.480000 36.833000 1.287000
-17.014000 36.838000 2.013000
-18.912000 36.809000 2.936000
-17.221000 36.820000 2.374000
-17.511000 36.817000 3.057000
-18.123000 36.839000 0.734000
-16.714000 36.823000 2.233000
-16.501000 36.822000 2.311000
-19.167000 36.812000 2.685000
-19.665000 36.817000 2.567000
-18.418000 36.814000 2.430000
-20.442000 36.838000 2.644000
-19.652000 36.814000 3.075000
-19.082000 36.811000 2.719000
-15.727000 36.823000 1.402000
-19.422000 36.816000 2.512000
-17.635000 36.817000 2.482000
-20.156000 36.835000 1.827000
-19.075000 36.816000 2.273000
-18.315000 36.851000 1.063000
-15.861000 36.824000 1.363000
-18.990000 36.813000 2.556000
-19.050000 36.846000 1.687000
-16.188000 36.825000 2.921000
-20.378000 36.838000 1.984000
-16.109000 36.825000 2.229000
-15.754000 36.834000 2.081000
-18.694000 36.845000 1.460000
-18.029000 36.842000 1.736000
-17.037000 36.841000 0.296000
-18.230000 36.842000 1.453000
-17.638000 36.816000 2.593000
-20.296000 36.842000 1.301000
-18.963000 36.844000 1.713000
-16.968000 36.842000 0.197000
-18.766000 36.813000 3.022000
-15.548000 36.827000 1.447000
-16.616000 36.821000 2.700000
-17.664000 36.840000 0.582000
-17.283000 36.840000 0.457000
-18.989000 36.842000 1.909000
-17.951000 36.859000 0.217000
-15.863000 36.825000 1.583000
-17.029000 36.837000 0.520000
-18.724000 36.813000 3.066000
-16.512000 36.826000 1.213000
-18.223000 36.814000 2.524000
-17.089000 36.854000 1.534000
-16.864000 36.826000 2.012000
-20.430000 36.837000 2.517000
-16.007000 36.826000 2.574000
-19.759000 36.841000 0.820000
-16.212000 36.825000 2.784000
-17.742000 36.817000 2.415000
-16.884000 36.827000 1.880000
-19.359000 36.847000 2.089000
-19.838000 36.816000 2.959000
-15.944000 36.828000 2.229000
-15.802000 36.829000 2.872000
-17.204000 36.820000 2.315000
-18.059000 36.844000 0.469000
-17.415000 36.847000 1.926000
-17.289000 36.846000 0.171000
-17.901000 36.847000 1.203000
-18.050000 36.813000 2.955000
-20.210000 36.840000 1.449000
-16.445000 36.826000 1.313000
-17.895000 36.843000 1.978000
-17.633000 36.868000 0.858000
-16.419000 36.822000 2.322000
-19.012000 36.846000 2.085000
-15.717000 36.835000 2.133000
-20.359000 36.833000 2.447000
-20.215000 36.828000 2.717000
-17.033000 36.853000 1.801000
-17.087000 36.844000 0.136000
-16.097000 36.825000 2.393000
-15.787000 36.831000 2.490000
-19.504000 36.817000 2.390000
-16.410000 36.822000 2.004000
-20.492000 36.840000 2.716000
-19.019000 36.815000 2.308000
-15.916000 36.825000 1.387000
-16.559000 36.824000 1.930000
-17.955000 36.839000 0.695000
-17.662000 36.842000 1.662000
-19.797000 36.837000 1.163000
-18.378000 36.810000 2.894000
-18.125000 36.815000 2.379000
-16.161000 36.825000 1.494000
-18.156000 36.841000 0.613000
-17.356000 36.849000 1.946000
-18.044000 36.814000 2.732000
-18.096000 36.843000 1.975000
-17.992000 36.860000 0.208000
-17.522000 36.845000 1.347000
-18.252000 36.813000 2.619000
-19.691000 36.839000 0.896000
-17.014000 36.834000 0.845000
-16.896000 36.817000 2.884000
-16.486000 36.826000 1.330000
-20.457000 36.842000 1.855000
-18.446000 36.812000 2.772000
-16.730000 36.825000 1.944000
-17.870000 36.814000 3.000000
-18.061000 36.842000 1.564000
-19.321000 36.811000 2.900000
-18.745000 36.842000 1.926000
-19.226000 36.814000 2.641000
-18.808000 36.842000 1.664000
-18.329000 36.843000 2.122000
-20.181000 36.828000 2.324000
-20.294000 36.831000 2.605000
-19.389000 36.868000 1.089000
-16.141000 36.824000 1.635000
-18.921000 36.809000 2.925000
-19.577000 36.818000 2.326000
-18.139000 36.830000 2.154000
-19.763000 36.815000 3.017000
-18.733000 36.845000 1.504000
-17.559000 36.817000 3.055000
-18.071000 36.840000 0.840000
-17.908000 36.817000 2.201000
-16.689000 36.827000 1.691000
-18.534000 36.848000 1.244000
-17.076000 36.816000 3.093000
-18.458000 36.843000 1.736000
-20.482000 36.841000 2.916000
-16.986000 36.856000 1.217000
-18.218000 36.816000 2.204000
-17.096000 36.846000 1.986000
-19.945000 36.820000 2.656000
-17.534000 36.839000 0.555000
-19.230000 36.845000 2.025000
-20.299000 36.832000 2.837000
-20.106000 36.824000 2.595000
-19.391000 36.857000 1.192000
-17.738000 36.846000 2.029000
-20.453000 36.846000 1.247000
-17.052000 36.837000 2.077000
-19.439000 36.850000 0.874000
-16.711000 36.828000 1.465000
-20.023000 36.819000 2.873000
-19.190000 36.849000 1.576000
-18.497000 36.839000 0.830000
-18.413000 36.845000 1.981000
-19.643000 36.817000 2.719000
-16.116000 36.825000 1.992000
-18.074000 36.842000 1.662000
-18.009000 36.840000 0.631000
-15.413000 36.833000 2.141000
-17.937000 36.814000 2.813000
-16.365000 36.823000 2.848000
-18.783000 36.853000 0.561000
-18.022000 36.816000 2.232000
-19.131000 36.814000 2.474000
-17.550000 36.817000 2.454000
-16.786000 36.831000 0.776000
-17.926000 36.814000 2.815000
-20.164000 36.831000 2.114000
-16.767000 36.828000 1.607000
-16.002000 36.825000 1.582000
-17.742000 36.815000 2.899000
-19.020000 36.854000 1.032000
-15.397000 36.831000 1.938000
-19.153000 36.809000 2.876000
-18.304000 36.845000 1.359000
-19.812000 36.814000 3.079000
-19.292000 36.842000 1.916000
-17.507000 36.816000 3.003000
-18.299000 36.811000 2.912000
-18.266000 36.839000 0.753000
-19.895000 36.830000 1.785000
-15.408000 36.828000 1.333000
-16.996000 36.856000 0.911000
-17.847000 36.843000 0.503000
-17.462000 36.848000 1.047000
-18.186000 36.844000 0.496000
-19.795000 36.823000 2.197000
-20.073000 36.822000 2.849000
-19.852000 36.818000 2.805000
-16.933000 36.821000 2.472000
-18.153000 36.850000 1.194000
-17.815000 36.843000 1.493000
-18.502000 36.866000 0.877000
-16.378000 36.823000 2.767000
-16.350000 36.826000 1.126000
-17.100000 36.853000 1.602000
-16.797000 36.825000 2.147000
-18.741000 36.841000 1.851000
-17.559000 36.816000 2.907000
-19.868000 36.823000 2.284000
-16.602000 36.825000 1.783000
-17.261000 36.816000 2.949000
-18.875000 36.812000 2.616000
-17.020000 36.855000 1.370000
-20.051000 36.822000 2.652000
-19.358000 36.846000 2.069000
-16.170000 36.825000 2.719000
-16.360000 36.823000 2.980000
-19.170000 36.809000 2.889000
-16.319000 36.823000 2.775000
-19.940000 36.834000 1.567000
-18.422000 36.843000 0.736000
-17.513000 36.817000 2.565000
-15.871000 36.826000 1.740000
-15.952000 36.828000 2.183000
-16.606000 36.829000 0.985000
-16.191000 36.823000 2.511000
-17.298000 36.848000 1.723000
-19.275000 36.810000 2.938000
-18.278000 36.811000 3.002000
-18.408000 36.853000 0.990000
-19.991000 36.819000 2.812000
-18.293000 36.813000 2.666000
-17.562000 36.816000 2.927000
-17.515000 36.851000 2.109000
-18.411000 36.809000 3.022000
-19.818000 36.819000 2.566000
-18.244000 36.844000 1.835000
-16.250000 36.822000 2.340000
-15.835000 36.834000 3.123000
-16.362000 36.822000 2.272000
-18.727000 36.858000 0.367000
-15.642000 36.827000 1.635000
-18.920000 36.841000 1.846000
-19.510000 36.812000 3.150000
-20.357000 36.842000 1.602000
-17.114000 36.821000 2.288000
-20.004000 36.833000 1.690000
-16.705000 36.824000 2.179000
-16.133000 36.825000 2.646000
-16.235000 36.824000 1.640000
-16.017000 36.827000 1.994000
-19.705000 36.834000 1.512000
-15.757000 36.830000 1.871000
-20.489000 36.855000 1.266000
-20.234000 36.843000 1.094000
-16.319000 36.822000 1.907000
-19.126000 36.810000 2.800000
-17.747000 36.849000 2.085000
-17.303000 36.851000 1.227000
-18.115000 36.847000 0.331000
-17.966000 36.864000 0.186000
-16.258000 36.822000 2.388000
-16.162000 36.824000 1.641000
-15.460000 36.835000 1.484000
-16.951000 36.849000 1.591000
-16.973000 36.840000 0.267000
-16.490000 36.824000 1.800000
-18.978000 36.814000 2.389000
-18.489000 36.813000 2.589000
-19.709000 36.818000 2.491000
-17.670000 36.844000 1.384000
-17.483000 36.835000 0.744000
-18.868000 36.845000 2.019000
-16.256000 36.825000 1.214000
-18.794000 36.847000 1.406000
-15.776000 36.823000 1.325000
-20.423000 36.877000 0.455000
-16.291000 36.825000 1.450000
-16.518000 36.821000 2.754000
-16.902000 36.821000 2.386000
-20.342000 36.835000 2.131000
-16.752000 36.832000 0.649000
-16.440000 36.823000 2.249000
-18.456000 36.812000 2.744000
-17.027000 36.817000 2.833000
-18.872000 36.813000 2.822000
-16.315000 36.822000 1.899000
-16.139000 36.824000 2.173000
-20.472000 36.838000 2.330000
-18.166000 36.847000 1.316000
-15.793000 36.829000 2.870000
-17.065000 36.817000 2.814000
-17.254000 36.851000 1.412000
-15.965000 36.827000 2.739000
-18.899000 36.806000 3.104000
-19.436000 36.850000 1.117000
-17.956000 36.815000 3.053000
-18.018000 36.843000 1.410000
-17.435000 36.818000 2.453000
-18.564000 36.842000 1.614000
-19.264000 36.815000 2.466000
-19.353000 36.826000 2.139000
-19.202000 36.816000 2.333000
-18.194000 36.812000 3.079000
-16.753000 36.836000 0.392000
-15.393000 36.838000 1.005000
-17.855000 36.861000 0.105000
-16.611000 36.826000 1.227000
-18.344000 36.813000 2.661000
-17.402000 36.846000 1.655000
-17.949000 36.861000 0.199000
-17.129000 36.840000 0.396000
-16.835000 36.824000 2.186000
-19.305000 36.845000 0.853000
-18.520000 36.843000 1.856000
-18.494000 36.861000 0.159000
-20.122000 36.827000 2.298000
-19.667000 36.820000 2.267000
-19.503000 36.821000 2.085000
-16.795000 36.828000 1.367000
-16.973000 36.842000 0.209000
-15.953000 36.831000 3.108000
-15.592000 36.826000 1.440000
-16.740000 36.821000 2.988000
-16.582000 36.821000 2.999000
-17.284000 36.816000 3.025000
-17.027000 36.854000 1.785000
-18.192000 36.812000 3.066000
-16.601000 36.824000 2.091000
-16.937000 36.844000 1.650000
-17.584000 36.845000 1.279000
-20.093000 36.824000 2.483000
-19.316000 36.817000 2.275000
-19.326000 36.841000 1.889000
-18.917000 36.850000 1.221000
-19.953000 36.821000 2.507000
-20.112000 36.825000 2.491000
-18.424000 36.848000 0.484000
-17.907000 36.843000 1.408000
-17.043000 36.855000 1.735000
-20.125000 36.825000 2.487000
-17.621000 36.842000 1.598000
-16.732000 36.828000 1.621000
-16.589000 36.821000 2.441000
-15.389000 36.838000 1.774000
-18.777000 36.865000 0.204000
-16.926000 36.820000 2.567000
-16.032000 36.826000 2.224000
-19.514000 36.818000 2.352000
-18.147000 36.839000 0.729000
-16.897000 36.830000 1.775000
-18.057000 36.842000 1.621000
-16.561000 36.821000 2.442000
-16.864000 36.822000 2.351000
-18.356000 36.810000 3.008000
-18.500000 36.812000 2.745000
-17.746000 36.840000 1.813000
-17.519000 36.836000 0.724000
-19.524000 36.835000 1.066000
-15.990000 36.826000 1.902000
-17.388000 36.817000 3.098000
-17.023000 36.855000 1.251000
-18.851000 36.808000 3.111000
-15.524000 36.835000 2.175000
-16.240000 36.824000 2.712000
-17.421000 36.850000 2.047000
-17.328000 36.836000 0.604000
-19.568000 36.835000 1.580000
-18.764000 36.849000 0.683000
-17.085000 36.853000 1.657000
-20.360000 36.834000 2.645000
-18.533000 36.861000 0.871000
-18.043000 36.857000 1.035000
-17.349000 36.815000 2.932000
-18.198000 36.847000 1.301000
-20.171000 36.839000 1.467000
-19.528000 36.816000 2.694000
-18.060000 36.814000 2.531000
-17.829000 36.841000 1.703000
-15.887000 36.825000 1.516000
-19.579000 36.835000 1.562000
-15.760000 36.848000 0.241000
-15.991000 36.829000 2.084000
-17.661000 36.843000 1.468000
-19.024000 36.816000 2.259000
-17.670000 36.842000 1.636000
-19.821000 36.834000 1.549000
-19.286000 36.809000 3.144000
-20.478000 36.840000 2.693000
-18.822000 36.851000 1.158000
-18.364000 36.851000 1.080000
-17.080000 36.820000 2.450000
-17.384000 36.816000 3.027000
-16.577000 36.821000 2.499000
-18.477000 36.810000 2.835000
-18.322000 36.813000 2.576000
-17.362000 36.843000 0.376000
-16.313000 36.824000 2.835000
-16.464000 36.826000 1.399000
-20.093000 36.832000 1.916000
-20.459000 36.844000 1.618000
-19.419000 36.838000 1.930000
-16.966000 36.821000 2.350000
-17.162000 36.841000 0.373000
-17.250000 36.819000 2.438000
-19.647000 36.829000 1.836000
-18.094000 36.843000 0.502000
-17.251000 36.819000 2.456000
-18.023000 36.843000 2.124000
-16.072000 36.825000 1.526000
-18.175000 36.843000 1.416000
-16.886000 36.835000 0.501000
-20.330000 36.831000 2.917000
-17.261000 36.817000 2.701000
-17.887000 36.831000 2.155000
-16.904000 36.823000 2.096000
-20.204000 36.832000 2.088000
-19.671000 36.838000 0.946000
-18.252000 36.813000 2.775000
-18.324000 36.844000 1.406000
-16.330000 36.822000 2.017000
-16.638000 36.821000 2.513000
-17.221000 36.851000 1.615000
-18.186000 36.827000 2.163000
-19.616000 36.834000 1.422000
-19.778000 36.838000 1.051000
-18.742000 36.851000 1.134000
-19.065000 36.854000 1.074000
-16.974000 36.847000 0.919000
-16.936000 36.845000 0.059000
-19.168000 36.849000 1.533000
-16.889000 36.838000 0.362000
-19.487000 36.840000 0.981000
-17.356000 36.846000 0.197000
-18.347000 36.813000 2.674000
-16.613000 36.826000 1.170000
-17.410000 36.849000 1.093000
-15.908000 36.829000 2.307000
-19.003000 36.846000 1.586000
-19.388000 36.856000 1.258000
-19.928000 36.819000 2.780000
-19.432000 36.841000 1.602000
-17.638000 36.843000 1.483000
-16.668000 36.824000 2.089000
-17.794000 36.822000 3.147000
-16.697000 36.832000 0.636000
-20.059000 36.831000 1.918000
-18.624000 36.847000 0.694000
-18.240000 36.842000 0.600000
-19.419000 36.846000 1.610000
-18.304000 36.811000 2.915000
-16.600000 36.826000 1.619000
-17.652000 36.845000 1.251000
-18.679000 36.862000 0.874000
-15.975000 36.825000 1.592000
-18.941000 36.841000 1.877000
-20.367000 36.834000 2.594000
-18.637000 36.840000 0.826000
-20.099000 36.821000 2.952000
-19.067000 36.846000 2.050000
-18.454000 36.814000 2.352000
-16.542000 36.826000 1.307000
-16.938000 36.843000 1.542000
-16.758000 36.825000 2.118000
-16.913000 36.832000 1.472000
-16.388000 36.823000 1.926000
-18.755000 36.812000 2.965000
-16.752000 36.831000 0.744000
-18.985000 36.854000 1.020000
-15.929000 36.833000 3.157000
-18.871000 36.813000 2.521000
-18.369000 36.843000 1.472000
-17.975000 36.814000 2.758000
-16.732000 36.828000 1.481000
-17.671000 36.816000 3.023000
-19.367000 36.818000 2.152000
-19.514000 36.818000 2.381000
-17.784000 36.842000 0.553000
-19.948000 36.822000 2.461000
-18.717000 36.851000 1.106000
-19.487000 36.829000 1.888000
-20.265000 36.833000 2.155000
-20.480000 36.838000 2.356000
-16.812000 36.822000 2.378000
-18.339000 36.814000 2.429000
-18.727000 36.862000 0.968000
-15.684000 36.825000 1.475000
-19.681000 36.840000 0.826000
-18.010000 36.815000 2.463000
-17.355000 36.846000 0.214000
-17.730000 36.815000 2.594000
-20.504000 36.847000 2.461000
-15.720000 36.830000 1.902000
-17.473000 36.819000 2.331000
-20.480000 36.856000 0.836000
-16.080000 36.827000 3.038000
-16.431000 36.822000 2.828000
-17.838000 36.848000 0.296000
-18.115000 36.856000 1.022000
-18.426000 36.849000 1.179000
-19.843000 36.822000 2.335000
-19.559000 36.817000 2.476000
-17.713000 36.844000 0.423000
-19.903000 36.819000 2.713000
-17.134000 36.852000 1.659000
-19.954000 36.837000 1.363000
-16.675000 36.871000 0.055000
-17.969000 36.864000 0.852000
-18.528000 36.842000 1.764000
-18.704000 36.814000 2.333000
-17.954000 36.870000 0.118000
-16.532000 36.826000 1.235000
-18.546000 36.813000 2.461000
-19.947000 36.842000 0.947000
-19.507000 36.813000 3.001000
-18.863000 36.816000 2.178000
-15.880000 36.826000 1.774000
-15.825000 36.829000 1.882000
-18.507000 36.853000 0.996000
-17.492000 36.839000 0.527000
-20.240000 36.841000 1.271000
-19.156000 36.861000 1.016000
-15.766000 36.832000 2.998000
-15.655000 36.830000 1.939000
-19.392000 36.843000 1.695000
-17.468000 36.848000 0.976000
-15.874000 36.832000 3.083000
-18.985000 36.846000 2.089000
-17.132000 36.822000 2.139000
-16.641000 36.824000 2.173000
-18.287000 36.844000 1.925000
-18.665000 36.813000 2.542000
-18.376000 36.851000 1.067000
-17.451000 36.816000 2.658000
-18.984000 36.851000 1.236000
-17.196000 36.852000 1.383000
-17.514000 36.846000 1.156000
-17.235000 36.820000 2.272000
-16.592000 36.821000 2.731000
-19.636000 36.836000 1.652000
-19.328000 36.860000 0.877000
-18.921000 36.813000 2.525000
-18.220000 36.847000 0.165000
-16.027000 36.824000 1.705000
-18.315000 36.845000 1.345000
-19.719000 36.820000 2.344000
-20.132000 36.822000 2.966000
-15.657000 36.829000 1.893000
-17.610000 36.836000 0.756000
-16.026000 36.823000 1.777000
-19.006000 36.848000 1.449000
-16.702000 36.839000 0.233000
-16.442000 36.822000 2.687000
-15.956000 36.825000 1.339000
-18.361000 36.810000 2.963000
-17.244000 36.817000 2.677000
-16.154000 36.826000 2.943000
-16.540000 36.823000 2.083000
-17.531000 36.816000 2.883000
-20.454000 36.841000 3.023000
-20.433000 36.836000 2.381000
-17.460000 36.847000 2.006000
-17.721000 36.851000 2.106000
-17.311000 36.851000 0.957000
-18.296000 36.850000 1.110000
-15.401000 36.833000 0.835000
-18.798000 36.814000 2.354000
-16.235000 36.824000 2.781000
-16.654000 36.820000 2.973000
-17.100000 36.820000 2.377000
-17.554000 36.817000 3.045000
-19.552000 36.820000 2.177000
-18.728000 36.843000 1.568000
-19.985000 36.822000 2.511000
-19.722000 36.818000 2.583000
-17.165000 36.840000 0.450000
-18.329000 36.848000 0.450000
-15.600000 36.827000 1.485000
-18.977000 36.866000 0.959000
-15.554000 36.825000 1.801000
-19.834000 36.834000 1.509000
-20.126000 36.822000 2.953000
-19.549000 36.819000 2.208000
-19.279000 36.844000 1.980000
-17.079000 36.838000 0.472000
-20.338000 36.844000 1.156000
-18.437000 36.851000 0.398000
-18.267000 36.846000 1.280000
-16.029000 36.826000 2.693000
-17.668000 36.849000 0.191000
-16.997000 36.856000 0.993000
-19.500000 36.819000 2.131000
-18.460000 36.860000 0.973000
-19.625000 36.835000 1.689000
-19.159000 36.810000 2.807000
-17.453000 36.841000 0.404000
-19.448000 36.835000 1.538000
-18.639000 36.809000 2.825000
-15.938000 36.828000 2.226000
-20.310000 36.846000 0.949000
-15.823000 36.828000 1.819000
-19.062000 36.815000 2.392000
-20.032000 36.821000 2.774000
-19.883000 36.825000 2.152000
-19.562000 36.832000 1.788000
-17.784000 36.848000 2.066000
-18.517000 36.844000 0.746000
-20.200000 36.873000 0.151000
-16.939000 36.821000 2.461000
-16.076000 36.826000 2.842000
-16.675000 36.830000 0.803000
-15.565000 36.828000 1.497000
-19.386000 36.846000 1.675000
-18.861000 36.844000 2.002000
-15.502000 36.829000 1.507000
-17.763000 36.815000 2.572000
-16.218000 36.825000 1.362000
-15.673000 36.826000 1.497000
-19.577000 36.816000 2.757000
-17.508000 36.819000 2.314000
-19.330000 36.838000 1.783000
-15.781000 36.835000 2.192000
-18.638000 36.813000 2.664000
-16.935000 36.841000 1.503000
-18.034000 36.842000 0.553000
-19.050000 36.816000 2.204000
-18.558000 36.845000 2.036000
-19.019000 36.840000 1.787000
-19.956000 36.841000 1.006000
-17.961000 36.845000 0.411000
-18.726000 36.849000 1.217000
-17.696000 36.846000 2.120000
-17.914000 36.848000 2.075000
-20.231000 36.836000 1.850000
-17.593000 36.816000 2.938000
-17.346000 36.816000 3.086000
-20.204000 36.828000 2.754000
-17.544000 36.815000 2.763000
-17.893000 36.857000 0.993000
-19.252000 36.815000 2.486000
-18.595000 36.844000 1.989000
-17.969000 36.844000 0.432000
-15.469000 36.826000 1.153000
-16.274000 36.824000 2.873000
-16.037000 36.826000 2.495000
-16.847000 36.824000 2.183000
-17.470000 36.816000 2.911000
-15.988000 36.825000 1.585000
-19.485000 36.835000 1.607000
-18.877000 36.813000 2.459000
-16.384000 36.822000 2.249000
-19.096000 36.853000 1.191000
-19.116000 36.815000 2.420000
-19.440000 36.818000 2.185000
-18.453000 36.814000 2.352000
-19.147000 36.810000 2.852000
-18.565000 36.814000 2.420000
-19.869000 36.831000 1.683000
-20.121000 36.824000 2.661000
-15.373000 36.835000 1.938000
-18.792000 36.810000 3.151000
-16.915000 36.836000 1.717000
-18.297000 36.840000 0.738000
-20.040000 36.835000 1.651000
-20.036000 36.824000 2.369000
-17.373000 36.847000 1.550000
-16.922000 36.820000 2.497000
-18.980000 36.816000 2.186000
-19.933000 36.816000 2.999000
-18.604000 36.842000 0.790000
-16.948000 36.835000 0.613000
-20.019000 36.825000 2.268000
-18.162000 36.848000 1.294000
-15.809000 36.824000 1.362000
-15.498000 36.836000 1.570000
-18.437000 36.810000 3.103000
-17.261000 36.850000 1.484000
-17.305000 36.816000 2.986000
-20.406000 36.838000 3.102000
-19.820000 36.836000 1.261000
-16.861000 36.827000 1.802000
-20.266000 36.826000 3.018000
-17.646000 36.837000 0.724000
-18.725000 36.862000 0.279000
-17.112000 36.853000 1.626000
-15.521000 36.834000 2.159000
-17.049000 36.843000 1.981000
-16.753000 36.867000 0.056000
-16.441000 36.822000 2.821000
-18.494000 36.862000 0.138000
-17.821000 36.847000 0.353000
-15.583000 36.828000 1.551000
-15.423000 36.829000 1.992000
-17.655000 36.849000 0.193000
-19.557000 36.829000 1.859000
-16.884000 36.820000 2.979000
-16.251000 36.824000 2.836000
-17.302000 36.816000 2.751000
-18.914000 36.806000 3.075000
-17.595000 36.835000 0.806000
-17.720000 36.840000 1.828000
-17.025000 36.839000 0.393000
-20.492000 36.839000 2.386000
-18.874000 36.847000 1.433000
-18.448000 36.848000 0.533000
-19.822000 36.840000 0.946000
-17.140000 36.852000 1.737000
-19.516000 36.817000 2.503000
-16.488000 36.822000 2.924000
-18.418000 36.857000 0.225000
-17.438000 36.839000 0.484000
-18.783000 36.841000 1.731000
-16.225000 36.823000 2.311000
-16.480000 36.822000 2.299000
-16.971000 36.850000 1.110000
-17.392000 36.815000 2.897000
-16.142000 36.824000 2.312000
-18.595000 36.841000 1.705000
-19.290000 36.851000 1.626000
-19.402000 36.861000 1.129000
-18.325000 36.843000 0.652000
-18.962000 36.816000 2.260000
-16.951000 36.833000 2.026000
-19.787000 36.816000 2.937000
-17.494000 36.819000 2.227000
-17.060000 36.816000 3.116000
-18.297000 36.845000 2.074000
-17.008000 36.817000 2.952000
-17.028000 36.853000 1.799000
-18.903000 36.842000 1.766000
-19.477000 36.832000 1.830000
-15.672000 36.828000 1.833000
-19.477000 36.813000 3.027000
-15.810000 36.829000 2.830000
-16.740000 36.825000 2.005000
-18.080000 36.814000 2.591000
-20.072000 36.820000 2.936000
-19.876000 36.819000 2.572000
-17.927000 36.842000 1.613000
-17.841000 36.838000 0.714000
-17.807000 36.821000 3.134000
-15.913000 36.828000 2.764000
-17.079000 36.819000 2.595000
-17.997000 36.842000 1.915000
-17.307000 36.816000 2.830000
-16.849000 36.836000 0.420000
-18.491000 36.810000 2.854000
-16.374000 36.822000 2.419000
-15.503000 36.829000 1.492000
-16.262000 36.824000 2.889000
-16.305000 36.823000 1.706000
-17.967000 36.849000 2.094000
-18.629000 36.842000 1.647000
-19.058000 36.850000 1.333000
-17.025000 36.855000 1.369000
-18.234000 36.854000 0.983000
-17.619000 36.847000 1.038000
-15.750000 36.860000 0.271000
-18.283000 36.842000 0.652000
-16.472000 36.828000 3.160000
-17.500000 36.815000 2.783000
-19.531000 36.816000 2.684000
-18.884000 36.852000 1.124000
-17.458000 36.816000 3.009000
-15.370000 36.832000 2.110000
-18.871000 36.851000 0.642000
-17.600000 36.843000 1.957000
-19.546000 36.834000 1.477000
-17.933000 36.856000 1.035000
-20.378000 36.853000 0.831000
-17.371000 36.846000 1.766000
-15.620000 36.826000 1.432000
-18.570000 36.840000 0.816000
-19.420000 36.823000 2.139000
-17.192000 36.816000 2.779000
-17.608000 36.847000 1.051000
-18.024000 36.821000 2.175000
-18.312000 36.843000 1.640000
-17.362000 36.816000 3.026000
-19.500000 36.813000 2.980000
-17.669000 36.815000 2.752000
-16.355000 36.827000 3.149000
-16.643000 36.820000 2.858000
-20.265000 36.845000 0.987000
-19.047000 36.868000 0.880000
-15.397000 36.833000 1.266000
-16.882000 36.821000 3.077000
-17.742000 36.839000 0.843000
-17.395000 36.848000 1.315000
-17.921000 36.814000 2.993000
-20.142000 36.834000 1.839000
-18.596000 36.844000 1.481000
-18.715000 36.812000 2.681000
-17.200000 36.851000 1.595000
-18.032000 36.856000 1.086000
-17.640000 36.816000 2.495000
-16.051000 36.825000 1.267000
-19.743000 36.834000 1.420000
-18.049000 36.814000 2.497000
-17.549000 36.846000 1.182000
-20.010000 36.818000 2.949000
-15.964000 36.829000 2.079000
-19.984000 36.821000 2.642000
-20.464000 36.839000 2.612000
-17.438000 36.849000 2.037000
-20.491000 36.862000 1.214000
-17.851000 36.814000 2.677000
-17.531000 36.843000 0.337000
-18.456000 36.849000 0.484000
-19.572000 36.835000 1.530000
-19.961000 36.833000 1.646000
-15.781000 36.824000 1.548000
-18.615000 36.857000 0.329000
-18.701000 36.850000 1.186000
-16.920000 36.838000 0.390000
-15.640000 36.824000 1.720000
-19.642000 36.826000 1.903000
-19.678000 36.834000 1.439000
-18.283000 36.811000 3.066000
-18.742000 36.813000 2.591000
-20.213000 36.828000 2.467000
-17.055000 36.844000 0.150000
-18.896000 36.812000 2.713000
-16.406000 36.827000 3.154000
-19.152000 36.812000 2.707000
-17.842000 36.814000 2.874000
-16.852000 36.820000 2.553000
-16.950000 36.819000 3.121000
-18.470000 36.808000 2.922000
-18.659000 36.846000 1.386000
-15.826000 36.830000 2.344000
-16.997000 36.835000 0.622000
-17.846000 36.841000 1.822000
-16.922000 36.822000 2.343000
-16.054000 36.829000 3.145000
-18.463000 36.851000 0.407000
-16.876000 36.820000 2.612000
-15.641000 36.823000 1.319000
-19.481000 36.817000 2.476000
-18.205000 36.844000 2.033000
-17.739000 36.846000 0.343000
-17.510000 36.844000 0.331000
-17.002000 36.837000 0.489000
-20.444000 36.841000 1.903000
-18.420000 36.846000 1.325000
-19.364000 36.817000 2.263000
-16.259000 36.822000 2.166000
-19.949000 36.830000 1.841000
-17.560000 36.819000 2.183000
-19.796000 36.818000 2.566000
-18.074000 36.814000 2.601000
-19.854000 36.817000 2.933000
-16.372000 36.823000 1.865000
-18.544000 36.844000 2.118000
-18.285000 36.852000 0.266000
-16.426000 36.822000 1.990000
-20.363000 36.845000 1.113000
-18.430000 36.844000 1.846000
-16.615000 36.838000 0.215000
-17.836000 36.845000 1.210000
-20.222000 36.841000 1.328000
-16.626000 36.826000 1.202000
-18.667000 36.810000 3.014000
-19.167000 36.830000 2.142000
-17.224000 36.818000 2.565000
-16.827000 36.822000 2.393000
-16.533000 36.826000 1.482000
-19.910000 36.823000 2.342000
-19.233000 36.860000 0.825000
-20.492000 36.845000 3.065000
-19.665000 36.816000 2.874000
-19.073000 36.811000 2.740000
-16.961000 36.850000 1.378000
-17.795000 36.844000 1.389000
-18.836000 36.809000 3.102000
-18.744000 36.813000 3.048000
-17.047000 36.855000 1.135000
-19.463000 36.816000 2.493000
-17.646000 36.844000 1.364000
-17.566000 36.847000 0.258000
-16.125000 36.825000 2.206000
-19.261000 36.815000 2.438000
-19.856000 36.815000 3.045000
-15.952000 36.830000 2.099000
-18.837000 36.854000 0.582000
-16.712000 36.827000 1.753000
-19.957000 36.816000 3.005000
-18.759000 36.841000 1.824000
-16.149000 36.825000 1.405000
-16.325000 36.824000 2.902000
-18.023000 36.878000 0.107000
-15.512000 36.825000 1.266000
-17.017000 36.834000 0.637000
-18.800000 36.845000 1.490000
-20.054000 36.824000 2.364000
-16.418000 36.822000 1.978000
-18.255000 36.848000 0.376000
-15.961000 36.825000 1.338000
-19.597000 36.820000 2.215000
-20.044000 36.826000 2.207000
-19.535000 36.834000 1.770000
-16.349000 36.826000 3.140000
-19.374000 36.811000 3.099000
-17.906000 36.815000 2.469000
-20.025000 36.839000 1.270000
-16.820000 36.823000 2.265000
-19.699000 36.825000 1.936000
-18.539000 36.842000 1.738000
-19.208000 36.814000 2.535000
-19.394000 36.812000 2.994000
-15.710000 36.835000 2.128000
-18.756000 36.846000 0.737000
-17.817000 36.838000 0.708000
-19.663000 36.820000 2.297000
-15.774000 36.838000 2.509000
-20.403000 36.835000 2.363000
-19.807000 36.818000 2.667000
-17.954000 36.814000 2.917000
-19.492000 36.834000 1.463000
-18.470000 36.849000 1.188000
-19.332000 36.813000 2.757000
-15.982000 36.829000 2.089000
-18.056000 36.845000 1.319000
-18.703000 36.851000 0.611000
