-15.736000 39.477000 2.086000
-15.582000 39.510000 0.978000
-15.767000 38.306000 2.315000
-15.746000 39.379000 2.250000
-15.744000 39.841000 2.225000
-15.766000 36.974000 2.534000
-15.784000 39.636000 2.444000
-15.767000 38.254000 2.308000
-15.743000 38.682000 2.242000
-15.563000 37.092000 0.878000
-15.773000 39.051000 2.323000
-15.779000 37.015000 2.355000
-15.774000 41.185000 2.429000
-15.527000 40.638000 0.456000
-15.775000 37.551000 2.455000
-15.779000 37.673000 2.381000
-15.873000 40.736000 3.140000
-15.766000 39.882000 2.521000
-15.565000 39.429000 0.679000
-15.765000 40.012000 2.486000
-15.789000 39.481000 2.469000
-15.769000 38.680000 2.418000
-15.773000 39.727000 2.420000
-15.768000 38.539000 2.367000
-15.769000 37.826000 2.511000
-15.768000 38.362000 2.411000
-15.779000 37.305000 2.421000
-15.778000 39.689000 2.461000
-15.701000 39.463000 1.744000
-15.773000 40.995000 2.337000
-15.505000 40.631000 0.134000
-15.507000 37.226000 0.425000
-15.772000 39.847000 2.361000
-15.769000 37.787000 2.530000
-15.773000 39.220000 2.417000
-15.778000 37.701000 2.395000
-15.531000 39.483000 0.652000
-15.769000 38.690000 2.467000
-15.773000 41.130000 2.445000
-15.564000 37.259000 0.697000
-15.771000 39.062000 2.536000
-15.771000 40.694000 2.407000
-15.770000 38.749000 2.368000
-15.733000 39.476000 2.066000
-15.767000 38.337000 2.378000
-15.772000 40.993000 2.460000
-15.523000 39.848000 0.478000
-15.844000 40.832000 3.136000
-15.785000 39.669000 2.603000
-15.548000 37.254000 0.542000
-15.775000 37.228000 2.456000
-15.774000 37.127000 2.431000
-15.767000 38.450000 2.445000
-15.769000 40.789000 2.548000
-15.773000 39.900000 2.306000
-15.774000 37.719000 2.452000
-15.770000 37.376000 2.565000
-15.785000 39.617000 2.466000
-15.768000 38.102000 2.368000
-15.768000 40.548000 2.564000
-15.770000 38.737000 2.387000
-15.771000 37.207000 2.551000
-15.778000 36.952000 2.367000
-15.774000 37.816000 2.410000
-15.778000 37.617000 2.391000
-15.771000 38.989000 2.507000
-15.772000 39.780000 2.577000
-15.769000 40.502000 2.412000
-15.478000 40.632000 0.154000
-15.768000 38.358000 2.397000
-15.511000 39.811000 0.466000
-15.781000 37.398000 2.382000
-15.768000 38.349000 2.309000
-15.769000 40.382000 2.398000
-15.785000 39.661000 2.510000
-15.771000 39.206000 2.537000
-15.740000 39.972000 2.216000
-15.779000 36.846000 2.359000
-15.514000 39.472000 0.466000
-15.468000 40.114000 0.036000
-15.767000 38.513000 2.442000
-15.765000 38.372000 2.252000
-15.549000 40.957000 0.745000
-15.772000 39.314000 2.581000
-15.773000 39.412000 2.574000
-15.503000 39.464000 0.135000
-15.779000 37.244000 2.382000
-15.769000 40.571000 2.481000
-15.769000 38.517000 2.337000
-15.752000 37.385000 2.255000
-15.771000 39.933000 2.353000
-15.782000 39.794000 2.637000
-15.774000 41.015000 2.328000
-15.747000 41.053000 2.199000
-15.750000 39.591000 2.243000
-15.738000 37.779000 2.247000
-15.485000 39.416000 0.108000
-15.753000 38.046000 2.250000
-15.767000 39.866000 2.485000
-15.754000 40.535000 2.207000
-15.772000 37.677000 2.488000
-15.768000 37.971000 2.508000
-15.768000 40.222000 2.363000
-15.526000 39.816000 0.470000
-15.766000 39.846000 2.545000
-15.777000 37.246000 2.429000
-15.767000 37.898000 2.564000
-15.734000 38.855000 2.243000
-15.776000 36.946000 2.377000
-15.768000 40.249000 2.313000
-15.750000 37.721000 2.251000
-15.765000 36.876000 2.479000
-15.475000 39.993000 0.041000
-15.769000 40.661000 2.500000
-15.583000 36.821000 0.838000
-15.547000 39.863000 0.487000
-15.772000 39.248000 2.508000
-15.770000 40.471000 2.342000
-15.767000 40.178000 2.432000
-15.767000 38.287000 2.297000
-15.861000 40.737000 3.140000
-15.770000 38.795000 2.359000
-15.772000 39.093000 2.497000
-15.729000 39.445000 2.254000
-15.772000 40.776000 2.361000
-15.770000 40.878000 2.582000
-15.757000 41.029000 2.199000
-15.734000 39.246000 2.246000
-15.757000 37.073000 2.258000
-15.770000 38.911000 2.587000
-15.767000 38.221000 2.370000
-15.775000 37.888000 2.315000
-15.771000 39.070000 2.548000
-15.541000 40.190000 0.441000
-15.773000 37.819000 2.445000
-15.751000 38.745000 2.242000
-15.473000 39.459000 0.159000
-15.489000 37.435000 0.278000
-15.773000 39.055000 2.385000
-15.764000 37.123000 2.261000
-15.772000 40.661000 2.300000
-15.514000 40.054000 0.482000
-15.772000 40.870000 2.425000
-15.771000 40.983000 2.584000
-15.864000 40.966000 3.133000
-15.771000 40.562000 2.302000
-15.872000 40.318000 3.148000
-15.780000 39.598000 2.680000
-15.771000 38.956000 2.439000
-15.771000 39.149000 2.572000
-15.770000 39.124000 2.601000
-15.773000 37.458000 2.507000
-15.771000 37.912000 2.467000
-15.562000 37.146000 0.887000
-15.769000 38.519000 2.337000
-15.769000 37.757000 2.548000
-15.558000 40.724000 0.750000
-15.773000 40.858000 2.317000
-15.767000 38.090000 2.415000
-15.855000 40.452000 3.145000
-15.762000 38.847000 2.243000
-15.789000 39.485000 2.520000
-15.769000 40.255000 2.276000
-15.545000 41.032000 0.742000
-15.780000 39.628000 2.676000
-15.848000 40.405000 3.145000
-15.731000 37.988000 2.249000
-15.774000 41.166000 2.424000
-15.772000 39.283000 2.564000
-15.774000 37.539000 2.472000
-15.770000 40.881000 2.545000
-15.567000 39.493000 0.754000
-15.771000 36.990000 2.413000
-15.770000 39.938000 2.372000
-15.788000 39.514000 2.495000
-15.768000 38.634000 2.458000
-15.769000 38.829000 2.569000
-15.501000 37.437000 0.256000
-15.772000 39.007000 2.476000
-15.767000 38.227000 2.381000
-15.568000 37.180000 0.845000
-15.780000 39.549000 2.660000
-15.740000 37.262000 2.249000
-15.767000 38.550000 2.532000
-15.727000 37.553000 2.245000
-15.780000 37.309000 2.409000
-15.773000 40.990000 2.330000
-15.730000 38.791000 2.243000
-15.766000 38.041000 2.545000
-15.766000 40.081000 2.421000
-15.733000 37.384000 2.245000
-15.769000 38.723000 2.471000
-15.773000 37.081000 2.417000
-15.773000 41.025000 2.378000
-15.851000 40.862000 3.135000
-15.653000 39.540000 1.584000
-15.870000 36.833000 3.139000
-15.770000 40.751000 2.461000
-15.766000 40.101000 2.468000
-15.767000 38.567000 2.462000
-15.779000 37.276000 2.400000
-15.742000 37.692000 2.248000
-15.766000 39.936000 2.475000
-15.751000 37.818000 2.251000
-15.769000 40.492000 2.465000
-15.774000 39.117000 2.315000
-15.546000 37.252000 0.474000
-15.766000 40.275000 2.511000
-15.584000 39.509000 1.022000
-15.773000 41.141000 2.520000
-15.754000 37.677000 2.254000
-15.754000 39.584000 2.245000
-15.750000 37.907000 2.249000
-15.564000 39.492000 0.766000
-15.770000 38.766000 2.375000
-15.739000 40.280000 2.209000
-15.770000 38.839000 2.463000
-15.768000 40.283000 2.388000
-15.773000 37.555000 2.489000
-15.774000 37.840000 2.403000
-15.756000 39.565000 2.247000
-15.770000 39.826000 2.440000
-15.624000 39.442000 1.188000
-15.773000 40.909000 2.331000
-15.752000 38.276000 2.251000
-15.771000 39.098000 2.541000
-15.768000 40.640000 2.573000
-15.775000 37.674000 2.435000
-15.770000 36.886000 2.424000
-15.772000 39.237000 2.525000
-15.770000 39.985000 2.341000
-15.789000 39.450000 2.513000
-15.773000 40.833000 2.301000
-15.766000 40.122000 2.474000
-15.771000 37.076000 2.465000
-15.771000 38.777000 2.318000
-15.785000 39.619000 2.480000
-15.769000 40.260000 2.273000
-15.787000 39.633000 2.565000
-15.768000 40.524000 2.555000
-15.768000 38.401000 2.397000
-15.769000 39.741000 2.504000
-15.566000 37.159000 0.861000
-15.774000 39.096000 2.319000
-15.773000 37.275000 2.546000
-15.775000 37.367000 2.483000
-15.530000 39.771000 0.458000
-15.763000 38.700000 2.264000
-15.547000 39.425000 0.601000
-15.771000 39.238000 2.573000
-15.790000 39.453000 2.478000
-15.770000 38.791000 2.407000
-15.781000 37.480000 2.370000
-15.772000 39.218000 2.527000
-15.735000 39.763000 2.226000
-15.774000 41.134000 2.342000
-15.732000 40.216000 2.211000
-15.770000 40.689000 2.449000
-15.768000 37.088000 2.548000
-15.767000 38.183000 2.327000
-15.776000 37.495000 2.447000
-15.776000 37.578000 2.428000
-15.506000 39.469000 0.389000
-15.766000 38.177000 2.404000
-15.771000 39.982000 2.312000
-15.770000 40.725000 2.471000
-15.768000 40.313000 2.350000
-15.771000 39.069000 2.514000
-15.771000 40.730000 2.413000
-15.561000 37.086000 0.828000
-15.771000 37.536000 2.521000
-15.778000 39.512000 2.648000
-15.767000 38.288000 2.397000
-15.771000 38.792000 2.328000
-15.550000 41.056000 0.742000
-15.765000 40.043000 2.452000
-15.867000 40.832000 3.137000
-15.524000 39.840000 0.603000
-15.768000 38.386000 2.320000
-15.772000 37.804000 2.470000
-15.746000 38.043000 2.250000
-15.504000 39.418000 0.265000
-15.784000 39.685000 2.500000
-15.778000 37.746000 2.341000
-15.744000 38.638000 2.243000
-15.734000 38.270000 2.251000
-15.773000 37.205000 2.505000
-15.573000 37.212000 0.793000
-15.786000 39.625000 2.520000
-15.773000 41.213000 2.542000
-15.632000 39.447000 1.418000
-15.531000 39.422000 0.538000
-15.772000 39.251000 2.534000
-15.765000 40.044000 2.434000
-15.571000 37.144000 0.821000
-15.727000 39.676000 2.228000
-15.770000 38.982000 2.596000
-15.769000 38.655000 2.426000
-15.769000 40.724000 2.532000
-15.769000 40.671000 2.512000
-15.773000 41.024000 2.349000
-15.765000 38.342000 2.250000
-15.776000 37.261000 2.453000
-15.772000 41.128000 2.590000
-15.768000 37.315000 2.263000
-15.773000 39.309000 2.476000
-15.492000 40.007000 0.040000
-15.773000 37.788000 2.456000
-15.773000 39.722000 2.417000
-15.775000 41.175000 2.357000
-15.765000 39.923000 2.504000
-15.767000 38.243000 2.309000
-15.770000 39.941000 2.354000
-15.572000 37.138000 0.817000
-15.753000 40.738000 2.205000
-15.771000 39.794000 2.423000
-15.773000 37.674000 2.459000
-15.775000 37.796000 2.420000
-15.728000 39.545000 2.094000
-15.732000 39.448000 2.254000
-15.775000 41.174000 2.325000
-15.769000 40.447000 2.400000
-15.788000 39.507000 2.468000
-15.552000 39.428000 0.822000
-15.768000 38.075000 2.404000
-15.753000 38.433000 2.248000
-15.732000 37.784000 2.247000
-15.776000 37.741000 2.405000
-15.745000 37.307000 2.251000
-15.774000 41.042000 2.330000
-15.768000 38.658000 2.503000
-15.766000 38.469000 2.515000
-15.774000 39.683000 2.420000
-15.770000 40.840000 2.503000
-15.776000 36.869000 2.383000
-15.744000 39.753000 2.230000
-15.773000 40.969000 2.367000
-15.773000 37.146000 2.450000
-15.773000 37.984000 2.305000
-15.566000 37.259000 0.679000
-15.729000 40.097000 2.213000
-15.772000 39.252000 2.538000
-15.781000 39.601000 2.662000
-15.771000 38.850000 2.363000
-15.519000 37.432000 0.375000
-15.649000 39.541000 1.495000
-15.769000 40.155000 2.276000
-15.570000 40.643000 0.681000
-15.771000 37.508000 2.535000
-15.773000 39.189000 2.421000
-15.770000 37.475000 2.567000
-15.774000 39.797000 2.352000
-15.767000 37.925000 2.532000
-15.761000 38.252000 2.252000
-15.770000 37.091000 2.503000
-15.570000 41.074000 0.742000
-15.767000 38.264000 2.467000
-15.785000 39.608000 2.462000
-15.767000 40.390000 2.491000
-15.770000 37.646000 2.533000
-15.767000 38.187000 2.359000
-15.509000 39.418000 0.404000
-15.773000 37.929000 2.355000
-15.755000 37.530000 2.256000
-15.773000 37.913000 2.373000
-15.672000 39.537000 1.785000
-15.737000 38.637000 2.243000
-15.533000 39.870000 0.621000
-15.614000 39.509000 1.010000
-15.766000 38.266000 2.497000
-15.771000 37.457000 2.536000
-15.774000 39.350000 2.429000
-15.772000 39.105000 2.472000
-15.781000 37.441000 2.381000
-15.773000 39.365000 2.531000
-15.774000 39.115000 2.317000
-15.771000 40.907000 2.518000
-15.712000 39.538000 1.921000
-15.506000 37.593000 0.163000
-15.767000 38.320000 2.469000
-15.768000 40.116000 2.326000
-15.481000 39.462000 0.235000
-15.563000 37.185000 0.908000
-15.767000 40.323000 2.480000
-15.766000 38.335000 2.564000
-15.769000 40.564000 2.435000
-15.742000 39.149000 2.245000
-15.478000 37.478000 0.165000
-15.766000 40.196000 2.496000
-15.523000 37.246000 0.375000
-15.770000 40.542000 2.382000
-15.770000 37.987000 2.400000
-15.773000 37.737000 2.460000
-15.539000 39.781000 0.622000
-15.766000 37.043000 2.262000
-15.740000 39.546000 2.049000
-15.769000 38.669000 2.332000
-15.772000 41.160000 2.545000
-15.772000 41.057000 2.524000
-15.770000 38.780000 2.426000
-15.760000 40.709000 2.205000
-15.770000 37.349000 2.585000
-15.771000 38.893000 2.436000
-15.774000 39.191000 2.399000
-15.773000 40.885000 2.321000
-15.614000 39.442000 1.291000
-15.767000 38.242000 2.413000
-15.772000 40.955000 2.445000
-15.767000 39.947000 2.447000
-15.772000 41.027000 2.468000
-15.771000 39.822000 2.412000
-15.766000 36.991000 2.511000
-15.770000 38.815000 2.440000
-15.507000 37.645000 0.161000
-15.767000 40.162000 2.404000
-15.854000 40.714000 3.140000
-15.772000 41.134000 2.594000
-15.766000 40.231000 2.507000
-15.767000 40.302000 2.459000
-15.771000 37.909000 2.458000
-15.506000 40.637000 0.376000
-15.771000 38.803000 2.339000
-15.771000 39.897000 2.377000
-15.767000 37.048000 2.555000
-15.768000 40.574000 2.541000
-15.771000 40.855000 2.488000
-15.772000 41.042000 2.463000
-15.552000 39.485000 0.620000
-15.776000 37.449000 2.461000
-15.770000 38.673000 2.312000
-15.771000 39.760000 2.436000
-15.766000 40.185000 2.491000
-15.534000 37.242000 0.451000
-15.770000 37.736000 2.517000
-15.772000 37.918000 2.398000
-15.766000 38.162000 2.478000
-15.771000 38.977000 2.498000
-15.769000 40.509000 2.467000
-15.490000 39.982000 0.041000
-15.770000 38.885000 2.558000
-15.558000 39.427000 0.682000
-15.782000 39.760000 2.586000
-15.766000 38.463000 2.271000
-15.779000 37.209000 2.352000
-15.770000 37.955000 2.457000
-15.589000 39.510000 1.033000
-15.771000 40.628000 2.336000
-15.771000 40.908000 2.467000
-15.768000 38.108000 2.346000
-15.788000 39.572000 2.543000
-15.770000 40.630000 2.400000
-15.754000 38.689000 2.242000
-15.765000 38.648000 2.286000
-15.770000 37.055000 2.467000
-15.769000 38.134000 2.299000
-15.484000 39.852000 0.045000
-15.770000 40.872000 2.552000
-15.767000 38.089000 2.418000
-15.835000 36.834000 3.123000
-15.768000 38.005000 2.493000
-15.714000 39.538000 1.959000
-15.638000 39.449000 1.507000
-15.741000 40.115000 2.213000
-15.532000 40.639000 0.497000
-15.769000 38.743000 2.528000
-15.749000 39.481000 2.154000
-15.770000 38.024000 2.372000
-15.775000 36.981000 2.382000
-15.763000 39.718000 2.241000
-15.511000 37.229000 0.408000
-15.768000 38.199000 2.277000
-15.765000 40.105000 2.508000
-15.771000 38.886000 2.413000
-15.770000 40.525000 2.345000
-15.769000 37.068000 2.493000
-15.771000 39.201000 2.544000
-15.738000 39.541000 2.123000
-15.773000 37.506000 2.488000
-15.772000 37.705000 2.475000
-15.774000 41.157000 2.354000
-15.766000 40.132000 2.499000
-15.727000 37.055000 2.242000
-15.767000 40.208000 2.432000
-15.771000 37.011000 2.425000
-15.774000 37.217000 2.470000
-15.525000 37.353000 0.389000
-15.770000 40.796000 2.528000
-15.758000 41.167000 2.196000
-15.769000 38.737000 2.406000
-15.767000 40.158000 2.337000
-15.766000 40.109000 2.397000
-15.771000 38.964000 2.535000
-15.564000 37.173000 0.794000
-15.512000 40.024000 0.487000
-15.865000 41.186000 3.126000
-15.491000 40.447000 0.026000
-15.767000 40.178000 2.435000
-15.765000 40.033000 2.473000
-15.771000 40.971000 2.511000
-15.768000 40.539000 2.525000
-15.772000 38.021000 2.293000
-15.789000 39.411000 2.460000
-15.566000 37.176000 0.862000
-15.767000 38.031000 2.498000
-15.787000 39.574000 2.528000
-15.768000 38.636000 2.422000
-15.540000 39.482000 0.594000
-15.771000 40.681000 2.344000
-15.766000 38.442000 2.267000
-15.573000 39.510000 0.965000
-15.778000 37.365000 2.435000
-15.771000 39.894000 2.375000
-15.772000 41.141000 2.574000
-15.680000 39.459000 1.750000
-15.643000 39.450000 1.559000
-15.753000 39.812000 2.231000
-15.736000 40.182000 2.212000
-15.766000 38.349000 2.559000
-15.766000 38.545000 2.567000
-15.772000 40.992000 2.455000
-15.772000 38.957000 2.410000
-15.768000 38.619000 2.478000
-15.775000 39.252000 2.351000
-15.778000 37.576000 2.406000
-15.766000 38.512000 2.531000
-15.774000 41.106000 2.315000
-15.728000 38.566000 2.245000
-15.770000 39.144000 2.576000
-15.768000 40.330000 2.448000
-15.723000 40.623000 2.206000
-15.777000 37.736000 2.383000
-15.777000 37.709000 2.409000
-15.752000 39.736000 2.235000
-15.766000 39.871000 2.506000
-15.773000 41.104000 2.412000
-15.774000 39.730000 2.376000
-15.738000 40.227000 2.211000
-15.771000 39.800000 2.435000
-15.635000 39.447000 1.440000
-15.767000 40.272000 2.486000
-15.771000 40.961000 2.566000
-15.744000 39.327000 2.248000
-15.780000 39.678000 2.683000
-15.758000 39.770000 2.235000
-15.766000 38.136000 2.552000
-15.859000 40.293000 3.147000
-15.769000 40.779000 2.543000
-15.558000 39.429000 0.865000
-15.789000 39.478000 2.485000
-15.772000 39.022000 2.467000
-15.563000 39.487000 0.801000
-15.765000 40.195000 2.548000
-15.846000 40.258000 3.147000
-15.699000 39.539000 1.773000
-15.771000 40.587000 2.338000
-15.768000 38.662000 2.499000
-15.775000 39.256000 2.317000
-15.671000 39.539000 1.723000
-15.542000 39.424000 0.626000
-15.764000 40.025000 2.546000
-15.769000 37.660000 2.591000
-15.766000 40.055000 2.413000
-15.766000 38.468000 2.552000
-15.612000 39.509000 1.009000
-15.513000 39.470000 0.403000
-15.742000 37.679000 2.248000
-15.746000 40.164000 2.212000
-15.774000 37.352000 2.511000
-15.778000 36.910000 2.368000
-15.627000 39.442000 1.119000
-15.772000 41.093000 2.520000
-15.765000 40.047000 2.452000
-15.756000 38.380000 2.249000
-15.770000 40.575000 2.427000
-15.768000 40.047000 2.365000
-15.787000 39.622000 2.556000
-15.773000 39.169000 2.423000
-15.772000 40.846000 2.375000
-15.536000 39.853000 0.482000
-15.772000 37.961000 2.349000
-15.514000 40.635000 0.258000
-15.841000 41.081000 3.128000
-15.621000 39.444000 1.388000
-15.769000 38.640000 2.379000
-15.728000 40.600000 2.206000
-15.767000 38.445000 2.273000
-15.766000 38.212000 2.538000
-15.776000 37.791000 2.346000
-15.589000 39.435000 0.919000
-15.633000 39.445000 1.313000
-15.520000 39.853000 0.479000
-15.768000 38.549000 2.432000
-15.770000 40.643000 2.456000
-15.752000 37.713000 2.252000
-15.767000 40.254000 2.452000
-15.768000 40.218000 2.358000
-15.784000 39.761000 2.624000
-15.767000 38.540000 2.516000
-15.736000 39.133000 2.245000
-15.769000 38.784000 2.504000
-15.768000 40.561000 2.528000
-15.774000 39.323000 2.411000
-15.773000 39.358000 2.548000
-15.867000 40.964000 3.133000
-15.767000 40.414000 2.531000
-15.790000 39.428000 2.447000
-15.769000 38.077000 2.362000
-15.778000 37.602000 2.396000
-15.755000 39.805000 2.232000
-15.759000 38.568000 2.247000
-15.695000 39.466000 1.947000
-15.771000 38.791000 2.322000
-15.533000 40.643000 0.628000
-15.774000 39.281000 2.390000
-15.478000 37.539000 0.165000
-15.779000 37.307000 2.423000
-15.484000 39.930000 0.043000
-15.768000 39.988000 2.397000
-15.785000 39.704000 2.586000
-15.773000 39.234000 2.426000
-15.772000 38.971000 2.329000
-15.768000 40.603000 2.575000
-15.766000 38.182000 2.442000
-15.761000 38.632000 2.262000
-15.769000 38.717000 2.511000
-15.767000 40.194000 2.454000
-15.771000 41.025000 2.592000
-15.479000 40.630000 0.101000
-15.776000 39.773000 2.582000
-15.526000 37.238000 0.422000
-15.774000 41.046000 2.350000
-15.768000 40.521000 2.562000
-15.773000 39.093000 2.453000
-15.771000 38.925000 2.445000
-15.501000 39.460000 0.111000
-15.512000 37.228000 0.451000
-15.770000 38.985000 2.595000
-15.512000 39.467000 0.231000
-15.766000 38.358000 2.529000
-15.771000 40.676000 2.331000
-15.769000 38.647000 2.392000
-15.757000 38.021000 2.250000
-15.769000 38.711000 2.470000
-15.766000 37.391000 2.262000
-15.769000 40.327000 2.335000
-15.533000 40.642000 0.586000
-15.768000 38.383000 2.389000
-15.536000 39.423000 0.660000
-15.771000 37.947000 2.394000
-15.777000 37.715000 2.399000
-15.773000 39.889000 2.310000
-15.732000 40.325000 2.209000
-15.777000 37.675000 2.412000
-15.788000 39.535000 2.504000
-15.778000 39.448000 2.555000
-15.770000 38.762000 2.415000
-15.552000 41.116000 0.740000
-15.766000 40.110000 2.445000
-15.561000 41.014000 0.744000
-15.766000 40.117000 2.411000
-15.769000 37.812000 2.532000
-15.768000 40.275000 2.320000
-15.768000 38.419000 2.295000
-15.770000 40.783000 2.465000
-15.745000 38.868000 2.243000
-15.771000 39.886000 2.375000
-15.767000 40.389000 2.565000
-15.752000 38.412000 2.248000
-15.766000 38.304000 2.539000
-15.770000 39.989000 2.338000
-15.771000 39.039000 2.548000
-15.769000 38.669000 2.414000
-15.534000 39.422000 0.364000
-15.789000 39.442000 2.434000
-15.554000 39.487000 0.650000
-15.769000 37.413000 2.588000
-15.646000 39.537000 1.392000
-15.476000 40.253000 0.032000
-15.769000 40.658000 2.546000
-15.562000 39.489000 0.679000
-15.771000 37.918000 2.446000
-15.768000 38.585000 2.395000
-15.768000 40.393000 2.422000
-15.749000 38.843000 2.243000
-15.498000 39.463000 0.150000
-15.855000 40.504000 3.145000
-15.769000 37.700000 2.561000
-15.768000 38.653000 2.505000
-15.771000 38.864000 2.339000
-15.767000 38.472000 2.507000
-15.766000 40.211000 2.494000
-15.478000 37.450000 0.160000
-15.765000 39.991000 2.468000
-15.538000 40.638000 0.475000
-15.768000 40.325000 2.438000
-15.768000 37.792000 2.574000
-15.777000 37.631000 2.415000
-15.765000 38.447000 2.263000
-15.566000 37.173000 0.860000
-15.845000 40.502000 3.144000
-15.768000 37.939000 2.509000
-15.482000 39.415000 0.124000
-15.786000 39.642000 2.585000
-15.779000 37.528000 2.386000
-15.784000 39.570000 2.596000
-15.770000 37.583000 2.544000
-15.748000 39.177000 2.246000
-15.770000 39.147000 2.577000
-15.773000 41.039000 2.407000
-15.771000 41.001000 2.596000
-15.765000 36.867000 2.468000
-15.528000 39.477000 0.549000
-15.775000 37.746000 2.435000
-15.774000 37.272000 2.509000
-15.777000 37.372000 2.449000
-15.562000 41.096000 0.741000
-15.848000 41.106000 3.128000
-15.845000 40.566000 3.143000
-15.557000 39.485000 0.607000
-15.778000 39.474000 2.593000
-15.785000 39.582000 2.429000
-15.769000 38.084000 2.345000
-15.775000 39.738000 2.340000
-15.773000 40.894000 2.340000
-15.600000 39.437000 1.068000
-15.746000 37.117000 2.252000
-15.495000 40.633000 0.200000
-15.765000 36.859000 2.481000
-15.773000 39.035000 2.335000
-15.771000 40.969000 2.555000
-15.768000 38.504000 2.419000
-15.755000 38.925000 2.243000
-15.769000 40.444000 2.414000
-15.767000 40.147000 2.317000
-15.773000 40.932000 2.365000
-15.516000 37.351000 0.388000
-15.771000 40.756000 2.387000
-15.769000 37.095000 2.529000
-15.740000 39.446000 2.254000
-15.767000 38.097000 2.416000
-15.771000 39.202000 2.589000
-15.767000 37.105000 2.571000
-15.767000 38.306000 2.417000
-15.766000 38.171000 2.464000
-15.563000 40.642000 0.629000
-15.633000 39.448000 1.489000
-15.773000 41.197000 2.525000
-15.769000 38.625000 2.382000
-15.770000 39.037000 2.593000
-15.511000 39.467000 0.266000
-15.863000 41.076000 3.130000
-15.768000 38.615000 2.408000
-15.767000 38.130000 2.380000
-15.770000 38.920000 2.526000
-15.767000 38.501000 2.437000
-15.771000 38.922000 2.478000
-15.764000 40.013000 2.516000
-15.769000 37.775000 2.530000
-15.766000 38.385000 2.550000
-15.770000 38.047000 2.324000
-15.768000 38.001000 2.477000
-15.771000 38.980000 2.476000
-15.770000 38.808000 2.470000
-15.755000 39.239000 2.246000
-15.772000 41.011000 2.476000
-15.735000 38.296000 2.251000
-15.780000 37.418000 2.400000
-15.534000 37.395000 0.395000
-15.772000 41.086000 2.504000
-15.770000 37.783000 2.509000
-15.770000 40.459000 2.284000
-15.767000 40.454000 2.563000
-15.780000 37.364000 2.412000
-15.772000 38.947000 2.317000
-15.770000 40.589000 2.421000
-15.767000 40.242000 2.438000
-15.771000 40.644000 2.386000
-15.545000 40.977000 0.744000
-15.770000 37.114000 2.504000
-15.768000 40.581000 2.572000
-15.768000 38.484000 2.333000
-15.461000 40.500000 0.025000
-15.775000 37.603000 2.437000
-15.766000 39.911000 2.484000
-15.731000 41.164000 2.196000
-15.790000 39.431000 2.463000
-15.747000 37.399000 2.253000
-15.768000 37.838000 2.544000
-15.768000 38.707000 2.546000
-15.773000 39.361000 2.490000
-15.619000 39.444000 1.364000
-15.766000 38.277000 2.505000
-15.769000 40.348000 2.315000
-15.778000 37.172000 2.365000
-15.512000 40.155000 0.462000
-15.767000 38.583000 2.515000
-15.524000 39.475000 0.509000
-15.773000 41.008000 2.383000
-15.596000 39.437000 1.112000
-15.771000 38.978000 2.459000
-15.769000 40.777000 2.592000
-15.766000 38.215000 2.528000
-15.774000 39.111000 2.343000
-15.767000 40.199000 2.455000
-15.769000 40.423000 2.346000
-15.768000 40.117000 2.307000
-15.770000 38.795000 2.374000
-15.767000 38.325000 2.432000
-15.774000 41.180000 2.398000
-15.498000 40.633000 0.175000
-15.738000 37.817000 2.247000
-15.773000 40.962000 2.320000
-15.741000 39.306000 2.247000
-15.772000 37.060000 2.435000
-15.775000 37.412000 2.486000
-15.783000 39.559000 2.617000
-15.773000 39.191000 2.439000
-15.838000 40.768000 3.138000
-15.545000 37.252000 0.500000
-15.757000 39.717000 2.238000
-15.521000 40.041000 0.485000
-15.588000 36.820000 0.862000
-15.542000 40.178000 0.451000
-15.527000 39.928000 0.479000
-15.541000 40.640000 0.542000
-15.646000 39.450000 1.520000
-15.774000 41.118000 2.340000
-15.552000 39.426000 0.602000
-15.771000 40.849000 2.481000
-15.734000 39.538000 2.199000
-15.773000 39.136000 2.459000
-15.768000 38.355000 2.391000
-15.771000 40.637000 2.310000
-15.770000 40.867000 2.584000
-15.767000 38.357000 2.455000
-15.786000 39.575000 2.474000
-15.770000 40.835000 2.534000
-15.769000 38.731000 2.435000
-15.770000 38.066000 2.312000
-15.768000 38.645000 2.548000
-15.726000 37.066000 2.241000
-15.773000 39.760000 2.384000
-15.774000 37.129000 2.425000
-15.772000 37.931000 2.379000
-15.766000 40.189000 2.495000
-15.770000 38.945000 2.577000
-15.770000 38.824000 2.406000
-15.768000 39.853000 2.464000
-15.574000 37.107000 0.802000
-15.610000 39.440000 1.243000
-15.748000 37.712000 2.251000
-15.772000 38.932000 2.345000
-15.769000 40.823000 2.593000
-15.778000 37.262000 2.406000
-15.781000 37.357000 2.396000
-15.767000 40.113000 2.368000
-15.598000 39.510000 1.058000
-15.773000 39.422000 2.556000
-15.768000 38.155000 2.303000
-15.744000 40.778000 2.204000
-15.768000 37.843000 2.530000
-15.502000 39.418000 0.288000
-15.770000 40.578000 2.410000
-15.769000 40.343000 2.340000
-15.505000 39.418000 0.294000
-15.772000 40.768000 2.365000
-15.770000 37.250000 2.586000
-15.767000 40.258000 2.463000
-15.774000 39.183000 2.391000
-15.770000 37.975000 2.404000
-15.765000 36.955000 2.542000
-15.770000 37.318000 2.591000
-15.779000 37.263000 2.403000
-15.690000 39.460000 1.684000
-15.772000 39.955000 2.292000
-15.777000 39.651000 2.339000
-15.764000 36.872000 2.503000
-15.769000 40.633000 2.523000
-15.770000 40.906000 2.558000
-15.523000 39.474000 0.481000
-15.768000 38.425000 2.302000
-15.769000 40.259000 2.274000
-15.769000 37.958000 2.498000
