-17.062000 39.539000 3.181000
-18.104000 38.346000 3.172000
-19.016000 36.993000 3.195000
-17.968000 39.727000 3.173000
-16.324000 37.169000 3.185000
-17.153000 39.880000 3.178000
-19.573000 37.528000 3.180000
-19.730000 37.619000 3.178000
-18.371000 36.986000 3.176000
-17.800000 38.894000 3.170000
-16.057000 39.720000 3.176000
-19.390000 37.596000 3.179000
-16.506000 39.607000 3.179000
-18.150000 40.081000 3.177000
-18.896000 37.391000 3.171000
-16.955000 37.192000 3.184000
-16.239000 40.261000 3.179000
-18.216000 37.998000 3.173000
-19.158000 37.630000 3.175000
-16.251000 38.384000 3.190000
-18.063000 38.245000 3.173000
-16.753000 39.876000 3.182000
-16.568000 39.456000 3.181000
-18.463000 39.951000 3.174000
-17.161000 38.585000 3.187000
-16.081000 39.192000 3.177000
-17.680000 38.452000 3.179000
-18.227000 40.075000 3.177000
-17.291000 37.040000 3.177000
-17.011000 39.551000 3.181000
-15.789000 36.963000 3.178000
-16.706000 39.712000 3.181000
-19.896000 37.121000 3.186000
-17.885000 37.356000 3.178000
-17.337000 39.748000 3.177000
-19.355000 37.199000 3.188000
-18.193000 37.085000 3.178000
-16.015000 40.004000 3.182000
-16.938000 36.830000 3.172000
-18.243000 36.876000 3.173000
-16.173000 39.289000 3.176000
-17.214000 39.113000 3.180000
-20.188000 37.010000 3.182000
-16.608000 39.372000 3.182000
-17.537000 37.640000 3.183000
-17.938000 38.186000 3.175000
-17.249000 40.176000 3.174000
-19.186000 37.781000 3.171000
-17.454000 40.580000 3.174000
-17.567000 37.096000 3.184000
-18.275000 37.322000 3.179000
-16.430000 37.216000 3.187000
-16.869000 40.268000 3.176000
-15.899000 37.399000 3.186000
-17.060000 36.913000 3.174000
-17.149000 38.142000 3.193000
-19.915000 37.580000 3.178000
-17.698000 37.946000 3.179000
-19.861000 36.907000 3.185000
-17.813000 38.545000 3.175000
-17.541000 36.970000 3.178000
-17.482000 36.817000 3.163000
-18.123000 40.648000 3.176000
-17.018000 38.247000 3.193000
-15.809000 39.386000 3.168000
-16.859000 38.683000 3.189000
-17.182000 39.587000 3.180000
-17.393000 38.134000 3.187000
-17.141000 37.101000 3.180000
-17.300000 37.322000 3.190000
-17.600000 37.325000 3.187000
-16.741000 38.330000 3.194000
-16.714000 37.132000 3.184000
-20.129000 37.366000 3.185000
-18.820000 36.879000 3.184000
-17.222000 38.938000 3.182000
-15.775000 37.049000 3.178000
-17.409000 39.502000 3.177000
-15.874000 38.766000 3.179000
-18.297000 37.242000 3.178000
-17.560000 37.204000 3.186000
-17.177000 38.880000 3.183000
-17.580000 40.163000 3.174000
-16.567000 37.160000 3.186000
-17.780000 37.349000 3.181000
-16.035000 39.409000 3.173000
-16.675000 38.382000 3.193000
-16.876000 37.454000 3.192000
-16.587000 39.112000 3.182000
-19.548000 37.354000 3.183000
-17.231000 37.177000 3.186000
-18.488000 37.901000 3.170000
-16.010000 38.440000 3.188000
-16.417000 39.382000 3.178000
-16.003000 37.036000 3.177000
-15.776000 37.027000 3.179000
-17.263000 37.846000 3.194000
-20.226000 37.646000 3.182000
-17.443000 37.395000 3.190000
-16.260000 36.928000 3.168000
-17.721000 38.438000 3.178000
-17.913000 39.055000 3.167000
-16.740000 36.929000 3.178000
-17.053000 39.411000 3.181000
-19.373000 37.406000 3.182000
-16.277000 40.112000 3.185000
-16.681000 37.261000 3.188000
-15.818000 38.176000 3.183000
-17.831000 38.221000 3.176000
-17.260000 37.482000 3.193000
-15.821000 36.937000 3.178000
-17.865000 37.147000 3.182000
-19.077000 37.944000 3.168000
-16.020000 39.320000 3.174000
-18.828000 36.880000 3.185000
-15.999000 38.400000 3.187000
-19.364000 36.818000 3.190000
-18.275000 37.728000 3.175000
-20.443000 37.308000 3.179000
-18.788000 36.844000 3.179000
-16.932000 37.301000 3.188000
-16.546000 38.549000 3.190000
-17.825000 39.693000 3.173000
-19.185000 37.197000 3.191000
-19.988000 37.314000 3.184000
-17.305000 36.827000 3.169000
-18.104000 37.236000 3.180000
-18.157000 37.357000 3.179000
-20.219000 37.042000 3.182000
-16.311000 39.074000 3.180000
-20.453000 37.410000 3.179000
-17.878000 38.756000 3.170000
-15.792000 38.026000 3.184000
-20.451000 38.494000 3.177000
-17.459000 37.591000 3.188000
-17.228000 37.942000 3.194000
-16.043000 38.627000 3.186000
-16.721000 38.946000 3.184000
-16.968000 38.844000 3.186000
-17.148000 38.196000 3.192000
-16.738000 39.395000 3.182000
-16.563000 39.399000 3.181000
-16.053000 37.184000 3.182000
-18.177000 37.320000 3.179000
-16.909000 38.316000 3.194000
-16.083000 36.831000 3.156000
-19.388000 37.126000 3.189000
-19.205000 37.653000 3.174000
-18.258000 38.332000 3.169000
-18.203000 37.371000 3.179000
-18.993000 37.901000 3.168000
-16.680000 38.268000 3.194000
-17.906000 39.672000 3.173000
-18.639000 38.081000 3.168000
-18.957000 37.860000 3.169000
-17.594000 37.223000 3.186000
-19.402000 36.963000 3.189000
-18.196000 37.035000 3.178000
-16.391000 37.267000 3.188000
-19.944000 37.285000 3.184000
-20.245000 36.968000 3.181000
-20.024000 36.824000 3.181000
-17.197000 38.165000 3.192000
-17.371000 39.931000 3.176000
-19.972000 37.656000 3.179000
-19.107000 36.916000 3.194000
-17.670000 38.616000 3.177000
-17.697000 37.190000 3.184000
-15.753000 38.670000 3.168000
-15.793000 37.118000 3.178000
-19.699000 37.235000 3.185000
-17.745000 39.694000 3.172000
-15.802000 38.636000 3.178000
-18.978000 37.307000 3.181000
-18.101000 40.085000 3.177000
-19.039000 37.366000 3.186000
-18.162000 37.879000 3.175000
-19.833000 37.605000 3.178000
-19.702000 38.030000 3.172000
-17.923000 40.118000 3.178000
-17.794000 37.130000 3.182000
-17.692000 39.660000 3.173000
-18.620000 38.221000 3.166000
-18.037000 39.285000 3.168000
-18.159000 38.396000 3.170000
-17.945000 37.158000 3.180000
-17.801000 37.592000 3.178000
-17.619000 40.151000 3.174000
-17.522000 38.244000 3.182000
-17.115000 38.820000 3.185000
-16.743000 38.226000 3.195000
-16.659000 39.994000 3.183000
-16.774000 40.168000 3.179000
-17.977000 40.191000 3.179000
-20.507000 37.033000 3.176000
-18.304000 36.999000 3.176000
-17.940000 39.058000 3.167000
-15.879000 38.840000 3.178000
-16.237000 38.868000 3.183000
-17.473000 38.341000 3.183000
-17.285000 39.411000 3.179000
-18.548000 37.551000 3.171000
-17.671000 39.657000 3.173000
-17.824000 40.463000 3.177000
-18.154000 39.822000 3.174000
-20.455000 38.283000 3.186000
-17.593000 39.626000 3.174000
-16.327000 38.599000 3.188000
-19.234000 37.482000 3.182000
-17.072000 36.874000 3.173000
-17.370000 37.689000 3.192000
-16.660000 39.950000 3.183000
-17.559000 39.117000 3.174000
-16.811000 40.478000 3.169000
-20.002000 37.060000 3.185000
-20.432000 37.378000 3.179000
-16.174000 40.295000 3.167000
-17.863000 37.580000 3.176000
-17.457000 38.986000 3.176000
-16.346000 37.045000 3.181000
-15.867000 38.739000 3.179000
-16.696000 39.228000 3.182000
-16.244000 40.275000 3.175000
-17.488000 40.097000 3.173000
-20.204000 36.974000 3.181000
-17.666000 38.350000 3.180000
-17.380000 37.717000 3.192000
-20.329000 37.596000 3.180000
-18.401000 38.337000 3.166000
-20.276000 37.375000 3.183000
-16.629000 39.904000 3.183000
-17.076000 37.522000 3.193000
-16.716000 38.994000 3.183000
-18.090000 39.869000 3.175000
-17.855000 39.608000 3.172000
-17.152000 39.432000 3.181000
-19.379000 36.987000 3.189000
-19.771000 37.208000 3.185000
-19.443000 36.974000 3.189000
-16.453000 39.860000 3.183000
-19.338000 37.982000 3.169000
-16.765000 39.737000 3.181000
-19.941000 37.129000 3.186000
-18.326000 37.467000 3.177000
-15.851000 37.186000 3.180000
-16.997000 38.832000 3.187000
-17.428000 39.273000 3.177000
-16.218000 38.699000 3.186000
-17.857000 40.217000 3.178000
-15.871000 37.341000 3.184000
-16.035000 38.112000 3.190000
-17.400000 39.952000 3.176000
-16.761000 40.120000 3.180000
-19.737000 37.939000 3.175000
-18.487000 37.389000 3.174000
-16.095000 37.044000 3.177000
-17.368000 38.842000 3.180000
-17.898000 37.448000 3.177000
-16.269000 39.640000 3.176000
-19.055000 37.475000 3.181000
-17.669000 37.565000 3.180000
-19.216000 37.763000 3.171000
-15.760000 37.235000 3.178000
-17.100000 39.391000 3.181000
-16.945000 39.461000 3.181000
-16.871000 39.144000 3.182000
-17.501000 39.300000 3.176000
-16.985000 37.371000 3.190000
-16.251000 38.347000 3.191000
-16.821000 38.715000 3.189000
-15.948000 37.225000 3.183000
-19.654000 37.957000 3.172000
-20.377000 37.935000 3.181000
-16.382000 39.946000 3.183000
-18.202000 39.906000 3.175000
-16.755000 36.842000 3.175000
-20.445000 36.858000 3.177000
-19.978000 37.401000 3.182000
-18.969000 37.899000 3.168000
-16.339000 38.875000 3.183000
-17.335000 38.778000 3.182000
-18.188000 37.710000 3.176000
-17.521000 39.710000 3.175000
-16.601000 38.514000 3.191000
-20.151000 36.939000 3.181000
-19.046000 37.913000 3.168000
-20.430000 37.435000 3.179000
-17.012000 39.932000 3.179000
-20.357000 37.762000 3.180000
-16.361000 39.254000 3.178000
-16.186000 39.996000 3.184000
-15.945000 39.345000 3.172000
-18.885000 36.985000 3.196000
-19.872000 36.920000 3.185000
-18.006000 36.887000 3.173000
-16.520000 39.490000 3.180000
-17.762000 39.122000 3.170000
-17.012000 36.973000 3.177000
-16.783000 40.218000 3.178000
-15.930000 39.672000 3.169000
-17.652000 38.427000 3.180000
-16.899000 39.749000 3.181000
-16.456000 39.981000 3.183000
-16.102000 38.554000 3.188000
-18.119000 38.271000 3.172000
-19.675000 36.817000 3.186000
-16.249000 40.081000 3.185000
-16.125000 40.283000 3.167000
-17.768000 38.081000 3.177000
-18.290000 38.389000 3.167000
-19.416000 37.548000 3.180000
-20.033000 37.935000 3.180000
-20.364000 37.024000 3.180000
-17.244000 40.186000 3.174000
-15.979000 38.475000 3.187000
-19.123000 37.150000 3.191000
-17.769000 39.393000 3.171000
-18.034000 36.838000 3.172000
-19.170000 37.653000 3.174000
-19.996000 38.147000 3.178000
-16.349000 39.491000 3.177000
-19.754000 37.017000 3.186000
-16.660000 38.810000 3.186000
-19.250000 37.204000 3.190000
-15.764000 37.055000 3.170000
-16.965000 38.937000 3.185000
-16.326000 39.567000 3.176000
-16.499000 39.250000 3.180000
-18.968000 37.263000 3.180000
-17.141000 38.763000 3.185000
-19.180000 37.485000 3.182000
-17.355000 37.460000 3.192000
-18.371000 37.347000 3.177000
-18.027000 40.352000 3.180000
-16.829000 37.251000 3.187000
-18.383000 40.269000 3.179000
-18.118000 40.056000 3.177000
-19.381000 37.442000 3.182000
-17.458000 38.366000 3.184000
-16.360000 40.150000 3.185000
-17.185000 38.296000 3.190000
-17.739000 40.376000 3.179000
-18.422000 37.837000 3.172000
-18.558000 37.663000 3.170000
-18.160000 38.263000 3.172000
-17.413000 38.798000 3.180000
-17.750000 37.095000 3.182000
-17.621000 39.078000 3.172000
-17.540000 39.088000 3.174000
-17.917000 37.889000 3.177000
-16.063000 39.453000 3.173000
-16.090000 38.348000 3.189000
-16.639000 39.493000 3.182000
-18.245000 40.163000 3.178000
-19.842000 37.396000 3.182000
-20.210000 37.267000 3.184000
-18.877000 37.577000 3.168000
-17.571000 37.717000 3.182000
-16.467000 40.367000 3.165000
-16.211000 38.888000 3.183000
-20.039000 37.958000 3.180000
-17.281000 36.851000 3.170000
-17.038000 38.329000 3.192000
-18.261000 37.865000 3.174000
-15.857000 37.156000 3.179000
-16.995000 39.295000 3.182000
-17.547000 39.663000 3.175000
-16.104000 38.798000 3.184000
-16.949000 39.056000 3.182000
-16.952000 37.481000 3.192000
-20.154000 37.867000 3.181000
-18.310000 36.819000 3.170000
-16.162000 39.734000 3.179000
-19.353000 36.956000 3.190000
-18.078000 39.642000 3.172000
-18.471000 37.669000 3.172000
-16.411000 38.633000 3.188000
-15.773000 36.858000 3.152000
-16.664000 39.008000 3.183000
-18.681000 38.057000 3.168000
-17.861000 37.019000 3.178000
-16.377000 39.368000 3.177000
-16.859000 38.853000 3.186000
-18.192000 38.523000 3.167000
-15.928000 39.502000 3.169000
-15.844000 37.505000 3.186000
-17.174000 38.777000 3.185000
-17.357000 37.340000 3.190000
-16.358000 37.200000 3.186000
-17.049000 38.608000 3.189000
-16.515000 37.011000 3.181000
-19.863000 37.287000 3.184000
-19.933000 37.352000 3.183000
-17.103000 39.440000 3.181000
-16.986000 40.379000 3.172000
-18.101000 37.351000 3.179000
-20.371000 37.157000 3.180000
-17.464000 37.084000 3.185000
-16.347000 38.477000 3.190000
-15.869000 39.390000 3.169000
-17.343000 39.712000 3.177000
-15.857000 36.835000 3.173000
-15.865000 40.032000 3.177000
-16.683000 36.993000 3.181000
-17.904000 40.123000 3.178000
-16.225000 39.111000 3.179000
-19.334000 37.543000 3.180000
-17.987000 37.117000 3.180000
-16.736000 38.874000 3.185000
-17.307000 38.132000 3.190000
-16.987000 37.312000 3.189000
-17.183000 38.372000 3.189000
-17.111000 39.871000 3.179000
-17.698000 38.999000 3.171000
-16.181000 38.318000 3.190000
-20.109000 37.709000 3.182000
-16.784000 39.324000 3.182000
-15.934000 37.192000 3.181000
-17.817000 40.238000 3.178000
-16.530000 38.624000 3.188000
-19.594000 37.515000 3.180000
-18.056000 38.223000 3.174000
-17.125000 38.363000 3.190000
-17.438000 37.147000 3.186000
-20.258000 38.058000 3.181000
-16.980000 40.297000 3.174000
-16.297000 40.249000 3.180000
-19.724000 37.536000 3.179000
-19.730000 36.965000 3.185000
-20.492000 37.859000 3.182000
-16.470000 39.813000 3.182000
-16.924000 39.536000 3.181000
-18.275000 39.885000 3.174000
-17.526000 38.783000 3.177000
-18.311000 38.275000 3.168000
-18.665000 37.880000 3.171000
-18.459000 37.210000 3.176000
-19.118000 37.033000 3.193000
-16.345000 38.514000 3.189000
-16.641000 40.027000 3.183000
-17.585000 40.323000 3.176000
-17.220000 37.379000 3.190000
-17.707000 37.253000 3.185000
-19.750000 38.069000 3.172000
-19.700000 37.422000 3.181000
-20.185000 37.666000 3.182000
-17.464000 37.022000 3.181000
-17.236000 37.850000 3.195000
-16.714000 38.825000 3.186000
-17.271000 39.141000 3.179000
-19.543000 37.806000 3.174000
-19.602000 37.965000 3.172000
-18.193000 38.124000 3.172000
-16.539000 36.859000 3.176000
-17.896000 39.984000 3.177000
-16.231000 38.878000 3.183000
-17.143000 36.971000 3.175000
-16.666000 37.258000 3.188000
-16.305000 37.289000 3.188000
-17.968000 37.082000 3.179000
-16.954000 39.067000 3.182000
-16.825000 38.339000 3.194000
-15.836000 38.908000 3.175000
-17.096000 37.192000 3.184000
-16.285000 39.963000 3.183000
-18.686000 36.920000 3.172000
-17.373000 39.007000 3.177000
-16.882000 40.477000 3.170000
-18.542000 37.289000 3.175000
-17.612000 37.276000 3.186000
-16.331000 39.798000 3.182000
-20.223000 37.827000 3.181000
-16.940000 37.432000 3.191000
-18.133000 39.798000 3.173000
-15.763000 37.636000 3.184000
-18.609000 36.869000 3.173000
-16.357000 38.786000 3.185000
-18.133000 37.383000 3.178000
-17.311000 40.041000 3.175000
-20.078000 38.158000 3.181000
-18.029000 40.175000 3.179000
-17.303000 37.513000 3.194000
-17.084000 37.015000 3.178000
-18.967000 37.453000 3.179000
-17.779000 38.744000 3.173000
-17.754000 40.445000 3.180000
-17.746000 37.190000 3.184000
-15.995000 40.136000 3.181000
-17.146000 37.455000 3.192000
-17.351000 36.879000 3.170000
-17.966000 37.118000 3.180000
-19.133000 37.509000 3.180000
-17.941000 39.672000 3.173000
-19.378000 37.135000 3.189000
-17.166000 40.029000 3.176000
-18.903000 37.957000 3.168000
-17.648000 38.890000 3.173000
-16.734000 39.897000 3.182000
-18.478000 37.000000 3.175000
-18.151000 38.278000 3.172000
-16.777000 38.803000 3.187000
-17.513000 37.579000 3.185000
-17.481000 40.078000 3.174000
-18.231000 37.972000 3.173000
-20.275000 37.630000 3.181000
-15.863000 38.546000 3.182000
-18.128000 37.951000 3.174000
-16.599000 39.751000 3.182000
-17.386000 37.231000 3.188000
-17.326000 37.003000 3.175000
-18.984000 37.079000 3.192000
-17.168000 38.188000 3.192000
-16.385000 39.210000 3.179000
-17.006000 40.107000 3.176000
-17.807000 38.325000 3.177000
-15.970000 37.140000 3.180000
-17.476000 39.005000 3.175000
-17.744000 37.670000 3.179000
-16.826000 38.563000 3.191000
-15.960000 38.140000 3.188000
-18.118000 38.672000 3.166000
-18.447000 37.653000 3.173000
-17.122000 37.540000 3.193000
-17.671000 40.344000 3.178000
-16.483000 39.075000 3.181000
-17.736000 36.830000 3.170000
-18.322000 37.934000 3.172000
-17.394000 37.986000 3.189000
-16.756000 39.949000 3.183000
-16.972000 38.347000 3.193000
-16.827000 39.700000 3.181000
-20.165000 37.994000 3.182000
-17.066000 40.176000 3.175000
-17.895000 39.288000 3.169000
-17.018000 39.569000 3.181000
-19.811000 37.543000 3.179000
-17.845000 38.675000 3.172000
-20.026000 37.805000 3.180000
-17.941000 39.529000 3.171000
-19.206000 37.969000 3.168000
-16.488000 39.595000 3.179000
-17.346000 39.462000 3.178000
-16.530000 39.628000 3.180000
-17.559000 40.007000 3.173000
-17.298000 39.042000 3.179000
-17.662000 39.994000 3.173000
-17.011000 40.497000 3.169000
-17.608000 39.913000 3.173000
-16.498000 37.197000 3.187000
-18.431000 37.792000 3.172000
-15.787000 37.156000 3.179000
-20.271000 37.092000 3.182000
-16.732000 38.647000 3.189000
-16.518000 39.740000 3.182000
-17.881000 40.140000 3.178000
-18.422000 37.498000 3.174000
-19.975000 37.221000 3.186000
-15.780000 39.049000 3.171000
-19.435000 36.926000 3.189000
-16.273000 39.246000 3.178000
-18.338000 39.821000 3.173000
-17.296000 39.150000 3.179000
-16.119000 37.275000 3.186000
-15.897000 39.385000 3.170000
-17.487000 38.573000 3.181000
-19.974000 37.784000 3.179000
-17.811000 38.494000 3.176000
-19.235000 37.941000 3.168000
-19.535000 37.237000 3.185000
-20.350000 38.274000 3.183000
-17.037000 38.890000 3.185000
-18.739000 37.653000 3.167000
-17.966000 39.273000 3.168000
-15.848000 39.279000 3.170000
-16.224000 39.605000 3.174000
-17.557000 38.048000 3.183000
-18.187000 36.959000 3.176000
-17.903000 38.090000 3.176000
-16.205000 38.702000 3.186000
-19.724000 37.497000 3.180000
-17.762000 40.030000 3.175000
-17.979000 40.076000 3.178000
-17.850000 39.324000 3.170000
-16.703000 40.399000 3.168000
-16.845000 38.380000 3.193000
-18.678000 37.343000 3.171000
-19.100000 37.089000 3.193000
-16.011000 37.099000 3.179000
-17.292000 39.311000 3.179000
-19.005000 37.130000 3.187000
-20.278000 37.701000 3.180000
-16.095000 38.968000 3.181000
-17.813000 38.689000 3.173000
-16.522000 40.155000 3.184000
-17.200000 39.444000 3.180000
-16.077000 39.709000 3.176000
-18.287000 39.914000 3.174000
-18.175000 36.963000 3.176000
-20.235000 37.862000 3.181000
-17.259000 38.792000 3.183000
-15.978000 38.867000 3.180000
-16.320000 38.627000 3.187000
-18.102000 36.841000 3.172000
-16.970000 38.352000 3.193000
-16.549000 39.291000 3.181000
-17.947000 40.039000 3.178000
-17.434000 38.880000 3.178000
-18.162000 39.551000 3.170000
-16.545000 37.141000 3.185000
-19.718000 38.014000 3.173000
-15.946000 38.446000 3.186000
-18.051000 38.640000 3.168000
-20.497000 37.998000 3.183000
-15.796000 37.710000 3.187000
-20.158000 37.170000 3.184000
-18.595000 37.549000 3.170000
-16.293000 39.931000 3.183000
-16.167000 39.155000 3.178000
-17.410000 39.956000 3.175000
-16.568000 39.059000 3.182000
-17.448000 36.849000 3.168000
-18.177000 37.016000 3.177000
-18.035000 39.544000 3.171000
-19.864000 37.859000 3.178000
-15.813000 37.278000 3.182000
-17.519000 38.937000 3.175000
-18.276000 37.271000 3.179000
-15.791000 39.640000 3.164000
-17.350000 38.951000 3.179000
-17.748000 38.534000 3.176000
-16.336000 39.668000 3.178000
-17.238000 40.274000 3.172000
-16.291000 39.783000 3.182000
-16.688000 38.705000 3.188000
-17.286000 39.679000 3.178000
-16.687000 38.767000 3.187000
-17.308000 39.757000 3.178000
-15.804000 36.891000 3.180000
-16.086000 38.221000 3.190000
-16.995000 38.782000 3.187000
-18.307000 40.491000 3.177000
-16.317000 39.320000 3.177000
-18.951000 37.390000 3.177000
-20.351000 38.223000 3.185000
-19.617000 37.296000 3.183000
-16.810000 39.692000 3.181000
-20.395000 38.243000 3.186000
-16.558000 36.846000 3.175000
-17.656000 37.359000 3.187000
-17.481000 38.702000 3.180000
-16.178000 39.252000 3.177000
-16.927000 36.925000 3.175000
-19.553000 37.190000 3.185000
-16.491000 39.095000 3.181000
-15.794000 39.203000 3.169000
-19.546000 37.727000 3.176000
-19.734000 37.475000 3.180000
-17.017000 36.834000 3.172000
-17.713000 39.716000 3.172000
-16.951000 39.420000 3.182000
-16.654000 37.042000 3.182000
-19.567000 37.659000 3.177000
-17.246000 39.310000 3.180000
-16.412000 39.541000 3.178000
-18.748000 37.473000 3.167000
-17.721000 37.120000 3.183000
-17.383000 39.755000 3.177000
-18.371000 37.764000 3.173000
-17.832000 40.568000 3.176000
-18.081000 40.461000 3.179000
-18.467000 40.085000 3.175000
-17.627000 39.675000 3.174000
-17.709000 37.404000 3.182000
-16.842000 37.009000 3.179000
-19.391000 37.209000 3.187000
-15.828000 38.529000 3.181000
-17.388000 37.391000 3.191000
-18.017000 38.428000 3.172000
-16.872000 38.937000 3.185000
-17.760000 37.751000 3.178000
-17.385000 37.768000 3.192000
-18.795000 36.901000 3.184000
-17.596000 39.665000 3.174000
-17.802000 36.891000 3.175000
-16.619000 36.872000 3.178000
-16.591000 38.917000 3.184000
-18.189000 38.269000 3.171000
-16.555000 40.198000 3.183000
-17.660000 37.706000 3.180000
-19.400000 37.339000 3.183000
-16.107000 38.963000 3.181000
-16.872000 39.319000 3.182000
-19.698000 37.501000 3.180000
-17.528000 38.741000 3.178000
-18.118000 38.374000 3.171000
-15.856000 39.960000 3.176000
-20.406000 38.278000 3.184000
-20.148000 37.737000 3.182000
-17.205000 38.914000 3.182000
-16.646000 37.108000 3.184000
-19.169000 37.072000 3.192000
-19.061000 37.537000 3.178000
-18.741000 37.134000 3.171000
-17.461000 37.122000 3.185000
-18.130000 39.986000 3.176000
-16.977000 38.926000 3.185000
-16.673000 38.379000 3.193000
-19.160000 37.650000 3.174000
-18.435000 37.589000 3.173000
-18.572000 40.266000 3.176000
-15.852000 39.625000 3.166000
-19.909000 38.061000 3.178000
-18.201000 37.213000 3.179000
-19.351000 37.155000 3.189000
-18.451000 37.374000 3.175000
-18.059000 38.379000 3.172000
-17.557000 39.103000 3.174000
-16.322000 40.247000 3.180000
-17.947000 36.824000 3.156000
-17.370000 39.023000 3.177000
-18.004000 37.921000 3.176000
-17.303000 39.271000 3.179000
-17.586000 40.275000 3.176000
-18.382000 37.187000 3.177000
-18.417000 37.943000 3.171000
-18.371000 39.838000 3.173000
-19.893000 37.598000 3.178000
-16.283000 39.188000 3.178000
-17.481000 39.355000 3.176000
-17.730000 39.192000 3.171000
-17.341000 38.420000 3.186000
-19.864000 37.725000 3.178000
-17.641000 38.340000 3.180000
-16.943000 39.571000 3.181000
-20.497000 36.848000 3.176000
-20.175000 36.868000 3.179000
-15.889000 39.999000 3.178000
-16.763000 39.299000 3.182000
-16.448000 40.262000 3.177000
-17.556000 39.453000 3.175000
-20.191000 36.855000 3.179000
-15.818000 39.142000 3.171000
-15.803000 39.852000 3.170000
-18.454000 37.774000 3.172000
-17.461000 38.186000 3.185000
-19.913000 37.146000 3.186000
-17.228000 37.321000 3.189000
-17.383000 38.646000 3.182000
-17.493000 39.595000 3.176000
-16.787000 37.125000 3.183000
-17.504000 40.025000 3.174000
-16.887000 39.300000 3.182000
-17.309000 37.580000 3.195000
-18.354000 39.862000 3.173000
-16.488000 38.691000 3.187000
-19.782000 37.508000 3.179000
-15.875000 39.149000 3.172000
-16.282000 37.269000 3.188000
-16.657000 39.070000 3.182000
-16.939000 38.681000 3.189000
-20.166000 36.865000 3.180000
-18.002000 39.509000 3.170000
-18.186000 40.069000 3.177000
-16.177000 40.129000 3.186000
-18.626000 36.935000 3.173000
-20.037000 38.270000 3.174000
-16.006000 39.767000 3.176000
-17.985000 39.428000 3.170000
-19.323000 37.137000 3.190000
-17.807000 38.869000 3.170000
-17.162000 38.061000 3.193000
-16.826000 36.938000 3.177000
-16.687000 38.528000 3.191000
-17.477000 40.431000 3.173000
-16.771000 38.992000 3.183000
-16.850000 39.601000 3.181000
-16.329000 38.765000 3.185000
-16.751000 38.337000 3.194000
-18.012000 38.181000 3.174000
-17.875000 39.623000 3.172000
-18.442000 37.501000 3.174000
-17.737000 37.661000 3.179000
-17.866000 37.970000 3.177000
-20.488000 38.273000 3.187000
-18.781000 37.854000 3.170000
-16.890000 40.000000 3.180000
-16.382000 40.111000 3.184000
-18.377000 38.192000 3.168000
-16.893000 38.734000 3.188000
-19.511000 37.362000 3.183000
-15.849000 38.643000 3.180000
-15.753000 38.614000 3.174000
-19.951000 38.173000 3.176000
-16.191000 39.193000 3.178000
-18.255000 37.924000 3.173000
-16.662000 39.476000 3.182000
-19.931000 37.193000 3.186000
-16.065000 40.049000 3.185000
-17.591000 39.537000 3.174000
-17.719000 38.535000 3.177000
-16.915000 39.486000 3.181000
-17.174000 38.358000 3.190000
-19.434000 37.541000 3.180000
-18.320000 37.994000 3.172000
-17.544000 40.310000 3.175000
-16.717000 38.396000 3.193000
-16.913000 39.749000 3.181000
-16.788000 38.324000 3.194000
-16.489000 40.201000 3.183000
-16.049000 37.218000 3.183000
-16.036000 37.306000 3.186000
-16.202000 39.447000 3.174000
-19.006000 38.035000 3.167000
-17.824000 39.224000 3.170000
-16.576000 37.002000 3.182000
-16.788000 39.867000 3.182000
-17.409000 40.105000 3.174000
-18.139000 37.568000 3.178000
-18.676000 38.068000 3.168000
-20.409000 38.237000 3.186000
-16.176000 38.984000 3.181000
-17.266000 39.053000 3.179000
-17.123000 40.142000 3.175000
-18.190000 40.229000 3.179000
-17.736000 38.505000 3.177000
-20.065000 36.855000 3.181000
-18.932000 37.662000 3.172000
-15.966000 37.255000 3.184000
-17.622000 37.849000 3.181000
-20.079000 38.035000 3.181000
-17.003000 40.206000 3.175000
-16.554000 38.695000 3.187000
-17.198000 37.425000 3.191000
-16.099000 39.423000 3.174000
-17.645000 36.873000 3.172000
-17.363000 38.789000 3.181000
-16.170000 38.667000 3.186000
-18.522000 40.128000 3.175000
-16.040000 38.177000 3.190000
-18.466000 40.334000 3.178000
-20.363000 37.805000 3.180000
-16.478000 38.505000 3.190000
-16.880000 38.882000 3.186000
-18.059000 37.536000 3.178000
-17.219000 38.951000 3.182000
-18.052000 38.039000 3.174000
-17.239000 37.792000 3.195000
-17.188000 38.821000 3.184000
-20.242000 38.154000 3.182000
-18.137000 39.555000 3.170000
-18.344000 39.943000 3.175000
-19.674000 36.988000 3.186000
-16.487000 38.479000 3.191000
-18.442000 37.183000 3.176000
-17.162000 38.165000 3.192000
-19.902000 37.334000 3.183000
-17.441000 38.991000 3.176000
-15.814000 39.645000 3.164000
-16.169000 38.245000 3.190000
-16.248000 37.148000 3.183000
-17.476000 40.190000 3.172000
-16.499000 39.448000 3.179000
-15.758000 39.090000 3.170000
-16.910000 39.549000 3.181000
-17.526000 40.571000 3.178000
-17.241000 37.841000 3.195000
-18.070000 38.607000 3.168000
-16.033000 39.677000 3.173000
-19.224000 37.748000 3.172000
-16.571000 39.954000 3.183000
-17.002000 39.934000 3.179000
-17.023000 38.784000 3.187000
-19.218000 37.247000 3.189000
-17.525000 40.049000 3.173000
-17.037000 40.172000 3.175000
-15.828000 36.992000 3.178000
-17.796000 39.748000 3.173000
-17.581000 39.500000 3.175000
-18.327000 40.314000 3.179000
-20.297000 37.211000 3.182000
-20.470000 38.486000 3.178000
-19.303000 37.258000 3.187000
-20.418000 37.113000 3.179000
-17.620000 37.487000 3.183000
-18.249000 37.573000 3.177000
-19.036000 38.028000 3.167000
-20.370000 38.296000 3.181000
-17.407000 39.646000 3.177000
-18.322000 37.961000 3.172000
-16.688000 40.429000 3.167000
-17.040000 37.486000 3.192000
-19.219000 37.772000 3.171000
-18.124000 38.470000 3.169000
-16.121000 38.197000 3.190000
-17.940000 39.360000 3.169000
-17.060000 39.801000 3.180000
-17.225000 38.778000 3.184000
-16.312000 39.986000 3.183000
-16.788000 39.307000 3.182000
-19.952000 36.933000 3.184000
-17.808000 37.092000 3.181000
-16.928000 38.860000 3.186000
-16.639000 40.374000 3.166000
-19.404000 37.717000 3.175000
-20.013000 38.032000 3.180000
-16.040000 37.002000 3.177000
-16.654000 36.962000 3.180000
-16.742000 39.514000 3.181000
-16.836000 38.834000 3.186000
-16.247000 39.926000 3.183000
-19.423000 37.557000 3.180000
-17.168000 39.597000 3.180000
-17.898000 38.188000 3.175000
-17.284000 39.799000 3.178000
-18.387000 37.195000 3.177000
-16.623000 39.706000 3.182000
-17.537000 40.055000 3.173000
-17.263000 38.554000 3.186000
-18.253000 36.892000 3.174000
-19.341000 37.466000 3.181000
-20.133000 37.331000 3.185000
-17.322000 38.384000 3.187000
-16.760000 37.015000 3.180000
-15.795000 39.304000 3.168000
-19.080000 37.401000 3.185000
-17.472000 38.346000 3.183000
-17.827000 38.781000 3.171000
-20.455000 37.380000 3.179000
-20.506000 37.128000 3.176000
-19.786000 38.053000 3.174000
-17.417000 38.162000 3.186000
-18.343000 40.247000 3.179000
-15.844000 37.906000 3.186000
-16.720000 39.414000 3.182000
-19.234000 37.372000 3.185000
-20.043000 36.864000 3.182000
-19.223000 37.795000 3.171000
-16.736000 37.038000 3.181000
-19.125000 37.652000 3.174000
-19.844000 37.125000 3.186000
-17.820000 39.261000 3.170000
-19.488000 37.741000 3.176000
-18.520000 37.153000 3.175000
-16.606000 39.362000 3.182000
-17.462000 37.158000 3.186000
-19.159000 36.899000 3.193000
-15.852000 38.225000 3.184000
-16.640000 37.217000 3.187000
-17.038000 38.800000 3.187000
-16.866000 39.939000 3.182000
-17.984000 40.351000 3.180000
-17.252000 40.100000 3.175000
-18.316000 37.597000 3.176000
-17.413000 40.623000 3.173000
-17.128000 38.644000 3.187000
-15.762000 37.535000 3.167000
-16.487000 38.696000 3.187000
-17.255000 39.187000 3.180000
-19.804000 37.522000 3.179000
-16.252000 38.755000 3.185000
-17.499000 37.651000 3.185000
-19.639000 37.070000 3.186000
-19.571000 37.674000 3.177000
-19.978000 37.494000 3.180000
-16.477000 39.651000 3.180000
-17.217000 37.909000 3.194000
-17.703000 39.026000 3.171000
-17.225000 39.399000 3.180000
-20.439000 37.818000 3.180000
-18.756000 38.087000 3.167000
-16.867000 37.136000 3.183000
-17.755000 39.879000 3.174000
-18.700000 37.280000 3.171000
-17.183000 36.906000 3.173000
-16.863000 39.704000 3.181000
-18.147000 37.266000 3.180000
-17.282000 38.400000 3.188000
-17.067000 36.866000 3.172000
-17.863000 38.219000 3.176000
-18.122000 37.802000 3.176000
-17.209000 36.817000 3.159000
-15.989000 39.470000 3.171000
-17.593000 38.948000 3.174000
-18.160000 38.387000 3.170000
-15.928000 38.554000 3.184000
-17.923000 39.872000 3.175000
-15.982000 39.189000 3.175000
-20.501000 37.775000 3.180000
-20.374000 38.074000 3.183000
-19.861000 37.732000 3.178000
-19.577000 37.726000 3.176000
-16.273000 37.257000 3.187000
-16.244000 38.854000 3.183000
-19.798000 37.625000 3.178000
-17.682000 39.815000 3.172000
-17.634000 39.631000 3.174000
-17.826000 39.956000 3.175000
-18.126000 40.032000 3.177000
-16.283000 37.277000 3.188000
-17.524000 39.735000 3.175000
-16.761000 39.906000 3.182000
-18.437000 37.545000 3.174000
-18.039000 38.584000 3.169000
-16.063000 38.770000 3.184000
-17.390000 39.681000 3.177000
-19.262000 37.152000 3.191000
-15.992000 39.936000 3.181000
-19.191000 36.953000 3.192000
-17.559000 40.221000 3.174000
-19.926000 37.236000 3.185000
-18.244000 40.164000 3.178000
-15.902000 37.258000 3.183000
-16.228000 37.110000 3.182000
-20.224000 36.959000 3.180000
-19.262000 37.506000 3.181000
-18.029000 37.752000 3.178000
-18.511000 40.119000 3.175000
-16.562000 38.482000 3.191000
-16.278000 38.496000 3.189000
-17.749000 39.494000 3.172000
-17.010000 39.161000 3.182000
-20.067000 37.708000 3.181000
-18.272000 37.552000 3.177000
-20.041000 37.386000 3.182000
-18.834000 37.448000 3.166000
-17.797000 39.395000 3.171000
-19.129000 36.823000 3.189000
-17.257000 39.597000 3.179000
-16.679000 39.272000 3.182000
-15.841000 38.313000 3.183000
-17.243000 39.572000 3.179000
-17.450000 38.355000 3.184000
-16.904000 37.303000 3.188000
-18.777000 37.013000 3.171000
-17.921000 38.269000 3.175000
-20.282000 38.169000 3.183000
-16.541000 39.821000 3.182000
-16.468000 39.594000 3.179000
-17.323000 40.060000 3.175000
-16.236000 36.978000 3.177000
-16.887000 40.220000 3.176000
-17.367000 39.534000 3.177000
-20.038000 37.804000 3.180000
-16.365000 38.665000 3.187000
-17.737000 40.474000 3.179000
-19.436000 37.035000 3.189000
-16.768000 39.517000 3.181000
-15.957000 36.832000 3.151000
-20.358000 38.025000 3.182000
-19.641000 37.307000 3.183000
-16.169000 36.921000 3.153000
-18.205000 37.257000 3.179000
-16.399000 39.502000 3.178000
-18.450000 37.670000 3.172000
-19.443000 37.361000 3.183000
-18.820000 37.478000 3.166000
-16.547000 40.231000 3.179000
-16.630000 39.082000 3.182000
-20.268000 37.246000 3.183000
-17.532000 40.295000 3.174000
-18.330000 39.898000 3.174000
-18.557000 37.812000 3.169000
-17.978000 37.148000 3.180000
-17.111000 38.640000 3.187000
-19.994000 38.167000 3.178000
-17.320000 39.329000 3.179000
-17.754000 37.628000 3.179000
-16.617000 37.130000 3.185000
-15.790000 36.917000 3.179000
-17.977000 39.390000 3.169000
-17.816000 38.572000 3.174000
-16.014000 40.146000 3.182000
-16.393000 38.340000 3.192000
-18.471000 37.484000 3.173000
-17.318000 38.687000 3.183000
-17.244000 39.060000 3.179000
-20.367000 37.548000 3.180000
-16.608000 36.980000 3.181000
-17.425000 37.149000 3.186000
-16.832000 39.759000 3.181000
-17.623000 37.578000 3.181000
-18.336000 38.018000 3.171000
-18.492000 38.018000 3.170000
-17.232000 39.513000 3.179000
-19.917000 37.430000 3.181000
-17.590000 40.359000 3.177000
-18.014000 38.837000 3.166000
-16.772000 38.422000 3.193000
-19.292000 37.016000 3.191000
-20.296000 36.893000 3.179000
-19.395000 37.164000 3.188000
-15.813000 38.601000 3.179000
-19.556000 36.840000 3.187000
-16.191000 38.445000 3.190000
-18.274000 38.216000 3.170000
-17.867000 37.057000 3.179000
-20.186000 38.106000 3.182000
-17.051000 38.667000 3.188000
-15.995000 39.273000 3.174000
-19.789000 37.077000 3.186000
-16.572000 38.763000 3.186000
-16.650000 38.293000 3.194000
-16.864000 40.294000 3.173000
-19.627000 37.349000 3.182000
-16.277000 38.955000 3.182000
-16.431000 37.062000 3.183000
-17.923000 39.463000 3.170000
-18.215000 40.214000 3.179000
-18.812000 37.371000 3.168000
-16.137000 38.687000 3.186000
-19.011000 37.783000 3.170000
-18.953000 37.575000 3.176000
-15.816000 37.532000 3.185000
-17.767000 39.951000 3.174000
-18.811000 37.835000 3.170000
-17.440000 38.732000 3.180000
-18.347000 40.399000 3.178000
-18.996000 36.924000 3.194000
-16.563000 39.706000 3.182000
-16.369000 40.331000 3.168000
-16.640000 40.119000 3.183000
-17.766000 40.770000 3.174000
-18.551000 37.691000 3.170000
-17.995000 37.896000 3.177000
-15.818000 39.282000 3.169000
-17.659000 39.384000 3.173000
-17.762000 37.578000 3.178000
-17.087000 39.835000 3.179000
-17.298000 39.437000 3.179000
-17.346000 37.176000 3.187000
-17.218000 39.710000 3.179000
-17.878000 38.952000 3.167000
-17.140000 39.419000 3.181000
-18.235000 38.109000 3.172000
-16.817000 39.831000 3.182000
-17.175000 38.707000 3.186000
-15.940000 39.073000 3.175000
-15.783000 37.345000 3.182000
-18.174000 37.678000 3.177000
-17.285000 37.002000 3.175000
-17.243000 40.326000 3.171000
-16.695000 37.094000 3.183000
-16.423000 39.210000 3.179000
-17.259000 39.312000 3.179000
-16.613000 37.189000 3.187000
-18.932000 37.333000 3.176000
-15.929000 40.196000 3.164000
-17.044000 38.420000 3.191000
-18.001000 38.469000 3.172000
-19.946000 38.130000 3.177000
-18.056000 38.697000 3.167000
-16.645000 39.072000 3.182000
-15.998000 39.463000 3.172000
-18.544000 37.268000 3.175000
-18.322000 37.736000 3.175000
-16.433000 39.442000 3.178000
-17.165000 37.906000 3.195000
-19.584000 37.532000 3.179000
-17.050000 39.504000 3.181000
-19.615000 37.735000 3.176000
-17.955000 37.115000 3.180000
-16.583000 38.974000 3.183000
-16.720000 39.436000 3.182000
-18.236000 38.339000 3.169000
-16.497000 40.080000 3.184000
-15.775000 38.493000 3.180000
-18.256000 39.783000 3.173000
-18.799000 37.407000 3.167000
-18.579000 38.001000 3.169000
-16.710000 40.361000 3.168000
-17.622000 38.427000 3.181000
-17.948000 38.905000 3.167000
-20.462000 36.917000 3.178000
-17.174000 36.958000 3.175000
-16.017000 38.502000 3.187000
-17.677000 38.107000 3.179000
-18.119000 40.025000 3.177000
-17.656000 38.827000 3.174000
-15.804000 37.838000 3.186000
-16.782000 40.358000 3.170000
-16.850000 39.438000 3.182000
-16.927000 39.494000 3.181000
-16.332000 37.095000 3.182000
-17.934000 39.838000 3.175000
-20.035000 37.036000 3.184000
-16.451000 39.315000 3.179000
-16.671000 39.109000 3.182000
-19.218000 37.184000 3.191000
-18.367000 40.217000 3.178000
-17.862000 38.264000 3.176000
-17.472000 37.728000 3.187000
-16.701000 39.026000 3.182000
-18.824000 37.653000 3.169000
-16.950000 40.281000 3.174000
-18.696000 37.584000 3.167000
-19.778000 37.030000 3.186000
-19.229000 37.416000 3.184000
-17.409000 37.096000 3.185000
-17.913000 40.153000 3.178000
-17.304000 37.319000 3.190000
-19.678000 37.903000 3.174000
-17.295000 40.058000 3.175000
-17.949000 37.684000 3.178000
-16.800000 39.145000 3.182000
-17.134000 40.155000 3.175000
-18.625000 37.883000 3.171000
-15.756000 38.308000 3.175000
-15.808000 37.028000 3.178000
-16.590000 39.113000 3.182000
-17.419000 39.846000 3.176000
-16.667000 38.419000 3.192000
-19.012000 37.171000 3.183000
-20.340000 37.557000 3.181000
-16.259000 39.134000 3.179000
-16.381000 38.554000 3.189000
-17.358000 39.663000 3.177000
-20.409000 37.838000 3.180000
-17.516000 39.852000 3.174000
-16.742000 40.094000 3.181000
-17.995000 39.872000 3.175000
-15.901000 39.527000 3.168000
-15.949000 38.374000 3.186000
-16.526000 38.973000 3.183000
-17.773000 39.605000 3.172000
-18.526000 36.903000 3.174000
-17.358000 39.037000 3.177000
-19.661000 38.053000 3.171000
-16.731000 37.158000 3.184000
-20.495000 36.978000 3.177000
-17.849000 39.004000 3.168000
-19.234000 37.234000 3.189000
-17.334000 37.023000 3.177000
-16.882000 38.627000 3.190000
-17.452000 38.085000 3.186000
-18.099000 40.082000 3.177000
-19.610000 37.791000 3.175000
-20.294000 37.324000 3.182000
-16.482000 39.610000 3.179000
-18.232000 37.124000 3.178000
-19.741000 37.841000 3.176000
-17.592000 39.452000 3.175000
-15.884000 38.435000 3.184000
-18.337000 38.333000 3.167000
-16.379000 40.127000 3.185000
-18.826000 37.510000 3.165000
-18.377000 39.992000 3.175000
-20.409000 37.131000 3.179000
-16.059000 39.467000 3.173000
-19.858000 37.717000 3.177000
-18.154000 39.688000 3.172000
-18.001000 37.614000 3.178000
-17.154000 38.193000 3.192000
-16.507000 39.421000 3.180000
-17.543000 37.742000 3.184000
-17.595000 40.328000 3.177000
-17.168000 40.076000 3.176000
-17.332000 39.319000 3.178000
-19.250000 37.374000 3.185000
-15.983000 39.294000 3.174000
-17.937000 37.586000 3.177000
-18.508000 40.095000 3.175000
-15.763000 39.316000 3.167000
-17.903000 40.074000 3.177000
-16.624000 39.394000 3.182000
-15.865000 37.515000 3.186000
-17.000000 40.061000 3.177000
-16.767000 40.299000 3.173000
-16.083000 39.448000 3.174000
-16.781000 39.931000 3.182000
-17.083000 40.499000 3.169000
-16.357000 39.269000 3.178000
-19.477000 37.212000 3.186000
-15.837000 39.749000 3.169000
-18.334000 40.143000 3.178000
-20.439000 37.839000 3.181000
-18.171000 37.098000 3.178000
-18.543000 36.912000 3.174000
-19.911000 36.813000 3.179000
-16.980000 37.279000 3.187000
-16.314000 39.453000 3.176000
-16.575000 39.718000 3.182000
-16.563000 38.651000 3.188000
-17.392000 37.348000 3.190000
-17.203000 40.415000 3.170000
-17.153000 40.347000 3.171000
-19.946000 37.846000 3.179000
-17.983000 40.582000 3.177000
-16.963000 39.957000 3.179000
-15.823000 39.980000 3.175000
-19.053000 37.019000 3.194000
-17.491000 40.629000 3.175000
-17.557000 37.117000 3.184000
-16.714000 39.111000 3.182000
-15.764000 39.141000 3.169000
-16.629000 38.343000 3.193000
-17.793000 36.875000 3.173000
-17.697000 38.881000 3.172000
-17.419000 38.523000 3.183000
-17.280000 39.293000 3.179000
-17.647000 38.203000 3.180000
-16.479000 37.083000 3.183000
-16.632000 39.275000 3.182000
-16.633000 39.955000 3.183000
-17.574000 37.689000 3.182000
-17.588000 38.419000 3.181000
-15.766000 39.795000 3.159000
-18.490000 36.948000 3.174000
-16.333000 38.487000 3.190000
-17.867000 39.531000 3.171000
-17.364000 38.423000 3.186000
-17.310000 38.803000 3.182000
-16.252000 39.334000 3.176000
-18.440000 38.234000 3.167000
-18.431000 38.188000 3.168000
-19.395000 37.702000 3.176000
-17.570000 39.929000 3.173000
-18.340000 38.214000 3.169000
-20.249000 37.962000 3.181000
-16.364000 37.225000 3.187000
-16.164000 37.238000 3.185000
-18.354000 38.297000 3.167000
-17.698000 37.341000 3.185000
-18.110000 39.427000 3.169000
-15.939000 38.170000 3.187000
-16.109000 38.985000 3.181000
-18.974000 36.809000 3.187000
-17.853000 36.891000 3.174000
-16.707000 39.039000 3.182000
-16.021000 39.620000 3.170000
-18.428000 38.032000 3.170000
-19.692000 37.571000 3.179000
-20.236000 37.889000 3.181000
-16.711000 37.125000 3.184000
-17.107000 37.564000 3.194000
-16.116000 38.675000 3.186000
-20.332000 38.192000 3.184000
-20.170000 38.203000 3.182000
-19.812000 37.265000 3.184000
-16.665000 38.755000 3.187000
-17.930000 40.016000 3.177000
-19.543000 37.952000 3.171000
-16.203000 39.873000 3.183000
-19.474000 36.811000 3.178000
-17.594000 39.166000 3.173000
-15.923000 37.946000 3.188000
-16.433000 39.316000 3.178000
-17.230000 37.439000 3.192000
-17.367000 39.914000 3.176000
-16.572000 39.880000 3.183000
-17.056000 39.774000 3.181000
-20.352000 37.158000 3.181000
-17.142000 36.817000 3.169000
-15.793000 37.370000 3.182000
-18.099000 37.981000 3.174000
-18.301000 37.411000 3.178000
-19.510000 37.509000 3.180000
-16.400000 40.208000 3.183000
-17.489000 38.514000 3.182000
-17.998000 37.134000 3.180000
-18.018000 38.837000 3.166000
-20.375000 36.844000 3.178000
-18.590000 36.825000 3.172000
-16.848000 39.235000 3.182000
-16.759000 39.769000 3.182000
-18.039000 38.512000 3.170000
-16.349000 40.331000 3.167000
-19.186000 37.481000 3.182000
-17.137000 39.949000 3.177000
-18.357000 38.371000 3.166000
-18.068000 40.268000 3.180000
-19.669000 37.984000 3.172000
-19.574000 36.858000 3.187000
-17.648000 40.564000 3.176000
-16.379000 38.570000 3.189000
-17.186000 37.311000 3.189000
-18.839000 37.036000 3.183000
-17.434000 37.830000 3.189000
-19.938000 37.951000 3.179000
-16.307000 38.949000 3.182000
-16.560000 39.354000 3.181000
-18.210000 37.629000 3.177000
-16.641000 39.155000 3.182000
-19.867000 36.983000 3.185000
-17.360000 37.810000 3.192000
-16.027000 38.963000 3.180000
-18.371000 39.867000 3.173000
-16.350000 38.661000 3.187000
-17.633000 38.180000 3.180000
-16.173000 40.228000 3.183000
-17.913000 39.405000 3.170000
-19.827000 38.062000 3.175000
-18.310000 37.116000 3.177000
-16.481000 38.593000 3.189000
-17.671000 38.741000 3.175000
-16.706000 40.241000 3.179000
-15.929000 37.948000 3.189000
-17.742000 36.989000 3.178000
-18.779000 37.199000 3.171000
-19.319000 37.115000 3.190000
-17.464000 40.071000 3.174000
-16.903000 40.471000 3.170000
-16.653000 39.703000 3.182000
-17.508000 37.021000 3.181000
-16.772000 38.543000 3.191000
-17.741000 37.103000 3.182000
-17.806000 39.130000 3.169000
-19.995000 37.314000 3.184000
-19.731000 37.122000 3.186000
-19.798000 37.033000 3.186000
-16.236000 37.239000 3.186000
-17.752000 39.916000 3.174000
-17.677000 38.438000 3.179000
-16.598000 39.406000 3.181000
-17.420000 38.550000 3.183000
-18.353000 40.454000 3.177000
-16.193000 39.782000 3.181000
-16.940000 39.464000 3.181000
-15.923000 39.996000 3.179000
-17.623000 39.828000 3.173000
-16.067000 39.585000 3.171000
-18.615000 37.479000 3.170000
-16.836000 38.915000 3.185000
-19.697000 37.386000 3.182000
-17.357000 38.318000 3.187000
-18.075000 39.341000 3.169000
-15.798000 39.594000 3.165000
-17.284000 38.601000 3.185000
-16.130000 38.803000 3.184000
-18.475000 39.949000 3.174000
-17.980000 39.264000 3.168000
-19.936000 36.814000 3.177000
-16.851000 39.342000 3.182000
-16.655000 39.556000 3.181000
-20.390000 37.464000 3.180000
-18.347000 40.241000 3.179000
-17.234000 37.177000 3.186000
-16.934000 36.903000 3.175000
-17.800000 36.952000 3.177000
-16.120000 39.430000 3.174000
-17.842000 37.540000 3.177000
-20.014000 38.162000 3.178000
-16.285000 39.601000 3.175000
-17.266000 39.233000 3.180000
-18.303000 37.278000 3.179000
-18.368000 37.784000 3.173000
-17.731000 37.407000 3.181000
-17.544000 37.587000 3.183000
-17.587000 37.629000 3.182000
-17.839000 37.005000 3.178000
-17.347000 39.735000 3.177000
-16.043000 38.350000 3.189000
-18.385000 37.837000 3.173000
-17.498000 40.489000 3.175000
-16.589000 40.206000 3.182000
-16.384000 40.343000 3.166000
-18.173000 37.380000 3.179000
-18.412000 38.279000 3.166000
-15.981000 39.092000 3.176000
-17.218000 37.863000 3.195000
-16.923000 40.359000 3.173000
-17.527000 38.513000 3.181000
-17.586000 39.338000 3.175000
-17.436000 38.871000 3.178000
-19.802000 37.141000 3.186000
-17.641000 37.306000 3.187000
-20.174000 37.155000 3.184000
-16.497000 40.022000 3.184000
-18.556000 37.217000 3.175000
-15.773000 39.863000 3.161000
-17.807000 39.979000 3.175000
-16.959000 38.827000 3.187000
-18.305000 37.244000 3.178000
-17.067000 39.760000 3.181000
-17.797000 40.696000 3.175000
-18.524000 36.824000 3.172000
-17.011000 36.908000 3.174000
-17.122000 36.871000 3.172000
-19.584000 36.911000 3.187000
-19.527000 37.986000 3.171000
-16.459000 36.871000 3.172000
-16.679000 38.830000 3.186000
-17.652000 37.066000 3.182000
-15.950000 39.144000 3.175000
-15.945000 37.054000 3.178000
-17.470000 40.125000 3.173000
-19.468000 36.911000 3.188000
-19.043000 36.804000 3.180000
-19.110000 37.937000 3.168000
-16.981000 40.068000 3.177000
-17.244000 39.144000 3.180000
-16.631000 38.293000 3.194000
-19.936000 37.615000 3.178000
-15.873000 38.426000 3.183000
-16.616000 38.538000 3.190000
-17.483000 40.543000 3.175000
-16.606000 39.318000 3.182000
-18.311000 37.111000 3.177000
-17.591000 39.789000 3.174000
-16.319000 40.113000 3.185000
-15.840000 38.944000 3.175000
-16.718000 39.011000 3.183000
-15.972000 39.633000 3.169000
-16.148000 40.065000 3.185000
-15.832000 39.174000 3.171000
-20.239000 38.029000 3.181000
-16.848000 37.012000 3.179000
-20.015000 36.899000 3.183000
-20.285000 37.840000 3.180000
-15.986000 38.021000 3.190000
-20.068000 38.213000 3.179000
-18.398000 39.878000 3.173000
-17.189000 38.664000 3.186000
-17.408000 38.811000 3.180000
-19.316000 37.563000 3.180000
-18.041000 40.216000 3.180000
-16.773000 36.825000 3.170000
-17.292000 39.889000 3.177000
-16.156000 38.478000 3.189000
-19.226000 36.966000 3.192000
-16.115000 37.305000 3.187000
-19.891000 37.308000 3.184000
-16.897000 37.131000 3.182000
-18.548000 37.549000 3.171000
-17.338000 37.061000 3.180000
-18.996000 37.925000 3.168000
-16.774000 40.379000 3.170000
-18.179000 37.452000 3.179000
-17.591000 38.148000 3.181000
-17.801000 38.841000 3.171000
-17.815000 39.005000 3.169000
-17.160000 36.896000 3.173000
-19.307000 37.528000 3.181000
-19.144000 37.084000 3.193000
-19.305000 37.547000 3.180000
-17.677000 38.495000 3.178000
-18.442000 40.188000 3.177000
-16.906000 40.428000 3.171000
-17.554000 39.510000 3.175000
-17.073000 38.231000 3.193000
-19.407000 37.342000 3.183000
-17.489000 39.143000 3.175000
-19.486000 37.485000 3.181000
-20.281000 37.620000 3.181000
-16.686000 38.340000 3.193000
-18.796000 37.050000 3.172000
-16.078000 39.954000 3.184000
-20.366000 37.671000 3.179000
-19.347000 37.919000 3.170000
-18.474000 36.949000 3.174000
-17.869000 37.037000 3.179000
-17.681000 39.379000 3.173000
-17.468000 37.739000 3.188000
-17.231000 39.316000 3.180000
-16.701000 39.964000 3.183000
-17.791000 40.661000 3.175000
-15.882000 38.202000 3.185000
-17.911000 37.344000 3.178000
-20.277000 37.742000 3.180000
-17.050000 38.220000 3.193000
-18.041000 40.307000 3.180000
-17.974000 40.357000 3.180000
-19.318000 37.695000 3.174000
-16.534000 40.014000 3.184000
-16.979000 38.809000 3.187000
-17.222000 37.179000 3.185000
-20.030000 37.388000 3.182000
-18.382000 40.047000 3.176000
-19.312000 37.868000 3.170000
-17.244000 39.506000 3.179000
-19.257000 37.229000 3.189000
-18.065000 37.673000 3.178000
-16.918000 38.557000 3.191000
-18.938000 37.267000 3.177000
-16.080000 40.158000 3.186000
-20.283000 37.339000 3.183000
-20.402000 37.619000 3.179000
-17.990000 39.088000 3.167000
-20.136000 37.324000 3.185000
-17.719000 38.562000 3.176000
-17.103000 39.375000 3.181000
-18.143000 38.273000 3.172000
-17.398000 39.832000 3.176000
-17.190000 39.449000 3.180000
-16.378000 39.476000 3.177000
-15.834000 38.587000 3.180000
-18.550000 40.434000 3.177000
-16.431000 37.150000 3.185000
-18.096000 37.104000 3.179000
-18.519000 37.942000 3.171000
-18.532000 40.131000 3.175000
-16.178000 38.339000 3.190000
-16.125000 38.632000 3.186000
-17.864000 37.784000 3.178000
-15.868000 37.271000 3.183000
-17.511000 40.470000 3.175000
-17.635000 39.550000 3.174000
-15.760000 37.253000 3.155000
-16.029000 38.215000 3.189000
-20.397000 37.751000 3.179000
-19.540000 37.929000 3.172000
