-15.766000 37.953000 0.080000
-17.128000 39.784000 0.064000
-18.462000 41.080000 0.057000
-16.179000 37.731000 0.081000
-20.040000 39.534000 0.048000
-18.728000 38.473000 0.072000
-17.548000 37.253000 0.086000
-18.891000 37.336000 0.072000
-16.884000 38.942000 0.069000
-16.106000 39.448000 0.057000
-16.718000 40.588000 0.056000
-19.427000 36.864000 0.068000
-18.314000 41.063000 0.055000
-18.801000 37.634000 0.070000
-19.121000 39.281000 0.055000
-19.840000 37.713000 0.071000
-19.737000 38.941000 0.045000
-18.790000 37.901000 0.075000
-20.166000 39.745000 0.049000
-15.910000 38.290000 0.077000
-20.033000 37.686000 0.072000
-16.633000 40.264000 0.058000
-20.450000 37.657000 0.077000
-17.413000 39.416000 0.063000
-20.171000 36.994000 0.071000
-19.922000 37.025000 0.063000
-20.131000 37.031000 0.067000
-18.635000 37.026000 0.068000
-15.803000 39.515000 0.056000
-19.422000 36.927000 0.069000
-15.626000 38.540000 0.072000
-16.182000 37.244000 0.086000
-17.896000 39.341000 0.065000
-19.894000 40.645000 0.049000
-17.052000 39.164000 0.062000
-18.377000 39.790000 0.054000
-17.343000 39.458000 0.064000
-16.075000 36.954000 0.083000
-16.977000 37.882000 0.078000
-16.654000 39.030000 0.065000
-17.349000 39.039000 0.065000
-15.673000 39.530000 0.055000
-16.569000 39.350000 0.064000
-16.779000 38.050000 0.079000
-19.669000 40.278000 0.051000
-16.119000 36.958000 0.083000
-15.873000 37.716000 0.081000
-17.127000 39.006000 0.063000
-18.353000 41.116000 0.056000
-17.495000 40.176000 0.066000
-19.752000 39.982000 0.052000
-17.303000 38.158000 0.076000
-16.437000 40.165000 0.058000
-19.251000 40.193000 0.054000
-19.931000 37.619000 0.072000
-15.590000 39.495000 0.056000
-17.944000 39.356000 0.064000
-19.818000 39.731000 0.050000
-19.581000 37.916000 0.068000
-18.864000 39.949000 0.058000
-17.481000 38.419000 0.072000
-16.424000 39.457000 0.062000
-20.351000 37.328000 0.083000
-17.037000 39.914000 0.064000
-19.255000 40.504000 0.053000
-18.160000 40.708000 0.054000
-18.687000 39.922000 0.057000
-18.158000 39.283000 0.060000
-16.372000 40.533000 0.048000
-18.283000 40.055000 0.053000
-15.990000 37.878000 0.080000
-17.676000 41.073000 0.066000
-16.840000 37.638000 0.078000
-17.707000 38.636000 0.069000
-16.399000 38.829000 0.064000
-16.390000 40.122000 0.058000
-19.333000 40.953000 0.052000
-18.500000 38.478000 0.072000
-16.493000 38.750000 0.065000
-17.411000 38.283000 0.074000
-15.539000 39.842000 0.045000
-19.013000 39.017000 0.061000
-16.936000 38.894000 0.069000
-17.772000 38.117000 0.078000
-17.750000 41.105000 0.061000
-18.795000 40.182000 0.059000
-16.210000 37.358000 0.085000
-16.869000 40.350000 0.059000
-16.328000 38.824000 0.064000
-16.749000 38.539000 0.077000
-18.284000 39.041000 0.057000
-16.925000 38.667000 0.074000
-17.354000 39.506000 0.063000
-17.239000 40.363000 0.063000
-16.697000 39.422000 0.068000
-18.982000 37.931000 0.066000
-15.497000 38.156000 0.078000
-18.694000 37.956000 0.078000
-16.535000 38.699000 0.068000
-18.354000 39.233000 0.058000
-20.447000 38.073000 0.071000
-17.315000 38.957000 0.065000
-19.153000 38.055000 0.064000
-18.529000 38.878000 0.060000
-17.351000 38.540000 0.070000
-19.808000 39.995000 0.051000
-19.283000 37.331000 0.071000
-19.308000 39.870000 0.056000
-18.327000 40.859000 0.055000
-19.842000 40.620000 0.054000
-19.942000 40.533000 0.051000
-17.767000 39.830000 0.061000
-15.314000 38.914000 0.065000
-15.692000 38.239000 0.077000
-19.652000 38.287000 0.066000
-19.158000 37.096000 0.074000
-15.600000 38.249000 0.077000
-19.412000 37.804000 0.067000
-16.005000 37.807000 0.081000
-18.242000 40.266000 0.054000
-17.010000 38.002000 0.078000
-16.280000 39.992000 0.056000
-18.521000 40.905000 0.056000
-18.628000 37.560000 0.067000
-16.829000 38.325000 0.078000
-16.612000 38.861000 0.064000
-18.906000 41.156000 0.059000
-17.370000 37.078000 0.073000
-20.002000 38.552000 0.057000
-20.034000 38.615000 0.055000
-20.241000 37.810000 0.072000
-19.215000 37.763000 0.065000
-17.213000 39.996000 0.063000
-18.308000 39.105000 0.057000
-17.270000 37.459000 0.069000
-15.811000 38.963000 0.064000
-19.558000 38.158000 0.067000
-18.784000 40.374000 0.058000
-20.257000 36.897000 0.081000
-16.028000 40.626000 0.048000
-18.629000 39.075000 0.065000
-18.389000 38.164000 0.078000
-16.839000 38.377000 0.077000
-18.918000 37.293000 0.073000
-17.001000 39.312000 0.067000
-17.871000 40.352000 0.059000
-20.205000 38.019000 0.068000
-19.515000 39.419000 0.050000
-17.452000 40.704000 0.065000
-17.536000 41.011000 0.069000
-19.769000 37.359000 0.066000
-18.187000 41.077000 0.054000
-17.024000 39.405000 0.067000
-20.180000 37.022000 0.072000
-18.806000 37.062000 0.075000
-17.756000 39.943000 0.061000
-17.837000 39.857000 0.063000
-18.243000 40.591000 0.055000
-20.077000 38.624000 0.054000
-17.387000 37.093000 0.075000
-18.497000 41.000000 0.056000
-16.286000 38.436000 0.077000
-16.519000 37.230000 0.079000
-20.250000 37.535000 0.078000
-19.175000 40.127000 0.055000
-18.000000 40.407000 0.056000
-16.371000 38.874000 0.064000
-19.985000 38.513000 0.059000
-18.098000 40.688000 0.054000
-16.499000 38.197000 0.080000
-18.670000 39.112000 0.064000
-19.349000 38.301000 0.065000
-19.599000 37.504000 0.066000
-20.114000 40.686000 0.065000
-17.209000 40.513000 0.061000
-15.909000 36.974000 0.088000
-19.606000 38.074000 0.068000
-15.359000 39.000000 0.064000
-18.978000 39.936000 0.056000
-19.599000 40.287000 0.052000
-15.364000 38.012000 0.079000
-18.670000 37.605000 0.068000
-20.126000 39.913000 0.062000
-16.029000 39.181000 0.060000
-17.187000 37.907000 0.078000
-17.546000 38.769000 0.067000
-18.046000 39.914000 0.057000
-17.137000 38.591000 0.071000
-16.316000 40.615000 0.044000
-19.661000 40.395000 0.048000
-18.987000 41.150000 0.058000
-20.096000 40.108000 0.066000
-17.829000 40.847000 0.055000
-15.872000 38.907000 0.064000
-17.999000 38.596000 0.075000
-18.572000 38.276000 0.072000
-16.994000 38.170000 0.077000
-16.654000 39.476000 0.067000
-18.875000 37.166000 0.072000
-19.278000 40.316000 0.053000
-17.060000 40.518000 0.056000
-17.981000 40.631000 0.055000
-18.923000 37.021000 0.077000
-19.084000 39.757000 0.057000
-19.847000 37.940000 0.070000
-18.837000 40.800000 0.055000
-15.532000 39.161000 0.062000
-16.269000 39.375000 0.058000
-18.665000 37.304000 0.068000
-18.896000 37.404000 0.072000
-19.941000 38.191000 0.066000
-20.457000 39.197000 0.072000
-18.591000 39.850000 0.056000
-17.238000 39.869000 0.062000
-15.719000 39.551000 0.055000
-18.612000 37.359000 0.065000
-17.432000 38.498000 0.071000
-16.806000 37.988000 0.078000
-18.280000 40.224000 0.055000
-17.127000 40.702000 0.069000
-16.364000 39.393000 0.060000
-18.847000 39.510000 0.055000
-17.558000 40.510000 0.060000
-16.590000 40.016000 0.063000
-17.041000 39.899000 0.064000
-20.025000 40.477000 0.052000
-16.046000 39.613000 0.053000
-20.327000 39.311000 0.047000
-17.633000 39.431000 0.062000
-17.316000 38.949000 0.066000
-19.755000 40.818000 0.060000
-17.673000 37.723000 0.067000
-16.217000 38.725000 0.070000
-16.564000 39.631000 0.066000
-20.471000 38.458000 0.055000
-18.261000 37.410000 0.073000
-19.049000 37.984000 0.063000
-19.210000 39.625000 0.061000
-18.326000 40.859000 0.055000
-19.838000 40.232000 0.051000
-20.085000 39.042000 0.047000
-17.375000 37.786000 0.078000
-17.075000 37.550000 0.077000
-17.203000 40.035000 0.063000
-16.852000 39.225000 0.065000
-20.055000 40.637000 0.050000
-17.220000 38.365000 0.073000
-16.099000 40.067000 0.049000
-16.588000 40.197000 0.059000
-17.491000 38.222000 0.075000
-15.902000 38.513000 0.072000
-16.009000 37.761000 0.081000
-15.349000 40.638000 0.055000
-16.456000 39.991000 0.061000
-19.815000 38.944000 0.045000
-17.484000 37.274000 0.083000
-19.470000 38.805000 0.061000
-20.042000 37.051000 0.061000
-18.248000 39.531000 0.058000
-19.345000 36.866000 0.086000
-17.992000 40.631000 0.055000
-17.748000 39.738000 0.063000
-18.720000 41.131000 0.061000
-16.174000 38.381000 0.077000
-17.317000 37.263000 0.073000
-19.847000 39.038000 0.045000
-19.836000 40.250000 0.051000
-17.413000 40.667000 0.058000
-18.970000 41.143000 0.058000
-16.486000 38.515000 0.078000
-15.982000 36.961000 0.086000
-19.563000 40.651000 0.048000
-16.620000 37.612000 0.073000
-17.454000 38.796000 0.067000
-19.480000 38.347000 0.066000
-17.391000 36.933000 0.072000
-16.168000 40.482000 0.040000
-18.692000 40.421000 0.058000
-18.270000 39.300000 0.059000
-16.119000 37.681000 0.083000
-20.259000 38.855000 0.048000
-17.068000 40.364000 0.058000
-19.735000 39.303000 0.048000
-18.437000 38.726000 0.071000
-16.500000 37.803000 0.080000
-15.845000 37.841000 0.080000
-16.019000 39.858000 0.049000
-19.910000 39.789000 0.050000
-15.773000 37.655000 0.086000
-20.039000 40.111000 0.062000
-16.150000 37.209000 0.086000
-19.067000 37.211000 0.075000
-16.339000 37.993000 0.080000
-16.168000 40.198000 0.049000
-19.272000 37.549000 0.068000
-18.686000 37.207000 0.067000
-19.192000 40.069000 0.055000
-19.325000 37.229000 0.071000
-17.855000 39.439000 0.065000
-17.679000 38.072000 0.077000
-17.565000 38.206000 0.075000
-19.696000 40.502000 0.047000
-17.975000 38.124000 0.081000
-17.513000 37.724000 0.078000
-19.702000 39.502000 0.049000
-18.003000 40.916000 0.053000
-17.517000 40.786000 0.068000
-16.252000 36.944000 0.086000
-20.034000 39.080000 0.047000
-17.035000 39.412000 0.067000
-17.196000 38.000000 0.077000
-18.102000 39.038000 0.061000
-16.586000 38.814000 0.064000
-19.254000 40.552000 0.052000
-19.058000 39.442000 0.071000
-20.200000 39.261000 0.047000
-16.798000 37.311000 0.085000
-15.904000 38.022000 0.078000
-16.136000 40.249000 0.047000
-19.429000 41.125000 0.052000
-20.319000 38.904000 0.048000
-16.973000 38.727000 0.073000
-16.806000 37.465000 0.081000
-18.067000 39.549000 0.061000
-19.403000 40.003000 0.055000
-16.999000 39.303000 0.066000
-18.849000 36.967000 0.081000
-15.974000 38.913000 0.064000
-16.521000 38.852000 0.063000
-19.605000 37.139000 0.067000
-19.285000 37.106000 0.071000
-19.083000 36.949000 0.077000
-16.755000 37.131000 0.068000
-17.193000 37.878000 0.078000
-18.698000 37.066000 0.070000
-17.790000 38.082000 0.078000
-19.250000 40.398000 0.053000
-19.953000 38.567000 0.056000
-18.723000 40.023000 0.058000
-16.682000 39.807000 0.067000
-17.656000 38.102000 0.077000
-16.200000 38.932000 0.063000
-17.385000 37.007000 0.073000
-17.054000 40.366000 0.059000
-15.919000 37.153000 0.086000
-20.423000 39.445000 0.048000
-16.237000 37.340000 0.085000
-16.294000 39.932000 0.057000
-19.749000 39.472000 0.049000
-18.904000 38.491000 0.065000
-15.820000 37.725000 0.081000
-16.996000 40.103000 0.062000
-20.256000 39.198000 0.047000
-18.132000 37.599000 0.075000
-17.047000 40.357000 0.059000
-16.513000 40.385000 0.057000
-18.395000 40.059000 0.054000
-18.282000 41.118000 0.055000
-20.306000 38.764000 0.050000
-18.025000 38.360000 0.064000
-15.670000 38.793000 0.067000
-20.256000 38.812000 0.048000
-18.104000 40.745000 0.053000
-19.705000 38.055000 0.069000
-16.550000 39.048000 0.063000
-18.074000 40.470000 0.055000
-19.511000 40.227000 0.052000
-20.158000 38.661000 0.053000
-17.483000 38.727000 0.068000
-15.714000 38.592000 0.070000
-18.127000 40.642000 0.054000
-17.204000 37.445000 0.068000
-16.801000 37.688000 0.078000
-16.929000 40.976000 0.064000
-19.466000 39.560000 0.052000
-17.964000 39.882000 0.059000
-17.039000 39.171000 0.062000
-17.242000 38.661000 0.069000
-17.402000 38.526000 0.071000
-16.515000 39.966000 0.062000
-16.026000 40.296000 0.042000
-17.232000 37.099000 0.064000
-16.920000 38.708000 0.074000
-20.372000 38.772000 0.049000
-19.932000 39.656000 0.048000
-19.824000 40.203000 0.051000
-17.015000 37.556000 0.077000
-16.073000 37.186000 0.085000
-16.195000 36.836000 0.088000
-20.228000 37.869000 0.071000
-17.735000 39.396000 0.067000
-20.140000 38.481000 0.058000
-16.365000 37.825000 0.080000
-16.657000 39.821000 0.067000
-17.760000 37.138000 0.096000
-19.350000 37.162000 0.070000
-16.689000 38.098000 0.079000
-18.555000 39.719000 0.056000
-19.471000 37.411000 0.067000
-20.360000 39.060000 0.048000
-19.568000 37.854000 0.068000
-17.062000 40.371000 0.058000
-16.408000 39.230000 0.060000
-17.308000 39.342000 0.065000
-16.241000 40.407000 0.045000
-19.766000 38.164000 0.068000
-18.194000 40.818000 0.054000
-17.476000 39.563000 0.062000
-17.875000 38.509000 0.068000
-16.043000 38.673000 0.070000
-16.169000 37.348000 0.085000
-16.309000 37.659000 0.086000
-15.850000 38.780000 0.067000
-16.421000 37.809000 0.080000
-19.016000 38.479000 0.066000
-20.324000 37.043000 0.091000
-19.897000 40.261000 0.052000
-16.757000 40.055000 0.062000
-18.084000 38.921000 0.059000
-19.706000 36.959000 0.066000
-20.439000 37.934000 0.071000
-19.634000 38.187000 0.067000
-16.386000 38.095000 0.080000
-16.029000 39.806000 0.050000
-17.117000 38.367000 0.074000
-16.157000 37.408000 0.084000
-19.451000 37.545000 0.066000
-15.660000 38.585000 0.071000
-18.435000 38.278000 0.075000
-19.974000 36.919000 0.064000
-18.757000 40.300000 0.059000
-18.408000 40.212000 0.056000
-15.514000 38.825000 0.067000
-19.918000 37.148000 0.063000
-18.922000 37.962000 0.068000
-19.592000 37.782000 0.069000
-17.848000 40.146000 0.060000
-18.357000 39.951000 0.054000
-16.943000 40.618000 0.056000
-16.873000 39.590000 0.068000
-16.024000 39.562000 0.053000
-19.377000 40.301000 0.053000
-15.601000 37.734000 0.081000
-20.258000 39.098000 0.047000
-16.646000 39.298000 0.066000
-17.618000 40.123000 0.067000
-18.860000 41.004000 0.057000
-19.339000 40.518000 0.052000
-18.575000 40.894000 0.056000
-17.161000 37.920000 0.078000
-16.762000 40.636000 0.062000
-15.555000 39.205000 0.062000
-19.958000 40.229000 0.054000
-16.096000 38.889000 0.064000
-19.058000 37.608000 0.071000
-19.356000 40.886000 0.051000
-20.374000 38.849000 0.049000
-15.465000 39.310000 0.066000
-15.334000 40.558000 0.066000
-20.441000 39.528000 0.048000
-16.910000 38.056000 0.078000
-19.276000 36.919000 0.071000
-17.721000 40.472000 0.059000
-18.420000 41.140000 0.057000
-19.087000 38.295000 0.063000
-16.738000 37.753000 0.079000
-19.981000 36.955000 0.063000
-20.210000 39.401000 0.048000
-20.273000 37.649000 0.073000
-18.557000 36.971000 0.065000
-16.611000 39.820000 0.066000
-17.201000 38.184000 0.075000
-16.073000 38.966000 0.063000
-19.249000 40.090000 0.055000
-19.549000 40.696000 0.048000
-16.398000 36.916000 0.077000
-15.875000 39.362000 0.058000
-15.658000 37.661000 0.082000
-18.705000 41.135000 0.060000
-20.016000 37.046000 0.061000
-16.481000 40.200000 0.059000
-17.863000 38.496000 0.067000
-16.011000 38.470000 0.074000
-16.559000 39.749000 0.066000
-17.436000 39.417000 0.063000
-16.672000 40.155000 0.060000
-17.920000 39.965000 0.059000
-17.205000 40.463000 0.061000
-18.899000 36.908000 0.084000
-18.447000 40.046000 0.054000
-19.397000 40.483000 0.051000
-20.097000 37.677000 0.072000
-16.319000 40.528000 0.046000
-19.059000 37.595000 0.071000
-20.167000 37.720000 0.072000
-18.687000 37.346000 0.068000
-18.108000 39.005000 0.060000
-17.616000 38.276000 0.074000
-19.253000 40.445000 0.053000
-18.784000 40.298000 0.059000
-17.158000 40.015000 0.062000
-19.078000 38.235000 0.063000
-19.184000 38.075000 0.064000
-17.689000 36.897000 0.090000
-15.315000 38.882000 0.066000
-19.889000 37.974000 0.070000
-18.201000 39.278000 0.060000
-16.596000 37.655000 0.074000
-15.536000 38.426000 0.075000
-16.426000 40.315000 0.056000
-17.135000 37.811000 0.078000
-15.264000 38.828000 0.066000
-15.926000 37.722000 0.081000
-16.231000 40.121000 0.052000
-17.208000 37.315000 0.067000
-18.805000 40.192000 0.059000
-19.909000 38.255000 0.064000
-19.020000 37.008000 0.076000
-15.495000 38.311000 0.077000
-15.584000 40.629000 0.069000
-19.882000 37.725000 0.071000
-17.878000 38.389000 0.066000
-18.970000 38.143000 0.065000
-16.896000 39.351000 0.067000
-16.605000 37.163000 0.068000
-17.245000 40.119000 0.064000
-15.802000 39.629000 0.051000
-19.525000 37.092000 0.067000
-17.969000 39.334000 0.063000
-16.009000 39.033000 0.062000
-18.735000 39.157000 0.062000
-16.568000 39.608000 0.066000
-18.703000 40.856000 0.056000
-19.304000 40.016000 0.055000
-17.395000 40.092000 0.065000
-18.838000 40.161000 0.058000
-19.661000 36.855000 0.066000
-19.198000 38.242000 0.064000
-15.970000 39.917000 0.046000
-17.944000 38.686000 0.071000
-17.666000 40.275000 0.062000
-19.162000 40.572000 0.053000
-17.998000 38.556000 0.075000
-16.623000 38.974000 0.064000
-17.066000 39.429000 0.067000
-17.477000 37.804000 0.078000
-16.995000 38.280000 0.076000
-20.167000 39.822000 0.049000
-16.824000 39.210000 0.065000
-16.407000 38.211000 0.080000
-16.418000 38.450000 0.079000
-17.088000 38.271000 0.075000
-17.547000 37.126000 0.085000
-15.542000 37.598000 0.084000
-18.044000 40.662000 0.054000
-18.312000 40.038000 0.053000
-18.207000 37.642000 0.076000
-20.277000 39.509000 0.048000
-17.296000 40.599000 0.061000
-20.027000 39.483000 0.047000
-19.372000 39.821000 0.056000
-20.218000 39.147000 0.047000
-18.205000 39.562000 0.059000
-16.702000 39.303000 0.067000
-19.519000 39.915000 0.054000
-19.538000 40.797000 0.058000
-15.835000 38.054000 0.078000
-17.010000 38.474000 0.075000
-17.882000 40.526000 0.057000
-20.042000 36.939000 0.063000
-16.464000 37.847000 0.079000
-17.150000 40.371000 0.059000
-18.542000 39.898000 0.055000
-18.263000 41.117000 0.055000
-18.903000 38.104000 0.071000
-15.483000 37.927000 0.080000
-17.593000 41.131000 0.068000
-16.555000 38.754000 0.065000
-18.107000 36.869000 0.095000
-16.937000 39.591000 0.067000
-17.507000 38.725000 0.068000
-16.398000 37.781000 0.080000
-15.483000 38.336000 0.076000
-18.966000 38.230000 0.065000
-17.798000 39.435000 0.066000
-18.095000 40.485000 0.055000
-18.277000 38.367000 0.071000
-19.785000 39.906000 0.052000
-20.132000 37.603000 0.073000
-16.328000 39.334000 0.059000
-20.178000 38.820000 0.047000
-18.619000 39.838000 0.056000
-20.191000 37.563000 0.073000
-15.986000 39.585000 0.052000
-19.764000 37.057000 0.066000
-19.212000 39.606000 0.062000
-20.094000 37.758000 0.072000
-17.868000 38.104000 0.081000
-20.353000 37.622000 0.077000
-18.022000 38.158000 0.080000
-16.965000 39.475000 0.068000
-16.338000 40.009000 0.058000
-19.627000 37.740000 0.069000
-19.444000 37.672000 0.065000
-19.404000 41.112000 0.052000
-18.570000 39.596000 0.052000
-16.318000 40.594000 0.044000
-20.113000 39.856000 0.049000
-16.159000 39.115000 0.061000
-20.242000 38.595000 0.054000
-19.674000 39.205000 0.048000
-19.436000 39.709000 0.055000
-17.115000 40.036000 0.062000
-15.536000 38.365000 0.076000
-17.064000 40.459000 0.057000
-17.476000 38.791000 0.067000
-18.588000 40.021000 0.056000
-15.899000 38.568000 0.071000
-20.193000 38.353000 0.059000
-15.489000 38.448000 0.075000
-17.243000 38.217000 0.075000
-17.459000 37.826000 0.078000
-17.141000 37.562000 0.077000
-16.282000 37.570000 0.087000
-18.062000 38.497000 0.073000
-20.460000 39.340000 0.064000
-19.427000 37.862000 0.067000
-16.366000 36.898000 0.080000
-18.159000 37.483000 0.067000
-19.873000 38.194000 0.067000
-15.464000 39.229000 0.063000
-18.695000 40.024000 0.057000
-16.834000 38.849000 0.073000
-15.652000 38.210000 0.077000
-17.751000 38.378000 0.069000
-20.144000 37.715000 0.072000
-15.709000 38.195000 0.077000
-20.081000 38.537000 0.057000
-16.518000 40.213000 0.059000
-18.529000 38.436000 0.072000
-19.219000 39.903000 0.056000
-17.361000 37.270000 0.075000
-18.860000 41.140000 0.060000
-16.740000 37.167000 0.075000
-17.487000 37.844000 0.078000
-15.982000 37.025000 0.085000
-17.922000 37.649000 0.070000
-16.149000 37.856000 0.080000
-18.883000 39.951000 0.057000
-16.104000 40.365000 0.042000
-17.023000 40.156000 0.061000
-19.729000 39.788000 0.052000
-19.401000 40.399000 0.051000
-16.588000 39.481000 0.066000
-17.205000 37.669000 0.078000
-15.607000 38.552000 0.072000
-17.137000 38.311000 0.074000
-17.529000 38.072000 0.077000
-18.233000 40.141000 0.053000
-19.769000 39.384000 0.047000
-17.058000 38.839000 0.069000
-17.873000 39.044000 0.064000
-16.063000 37.617000 0.082000
-17.900000 39.927000 0.060000
-17.523000 39.865000 0.066000
-18.046000 39.173000 0.063000
-17.423000 38.673000 0.068000
-18.239000 41.080000 0.054000
-19.664000 40.702000 0.050000
-20.370000 38.933000 0.048000
-20.357000 37.352000 0.083000
-20.220000 38.000000 0.068000
-16.153000 37.662000 0.084000
-17.630000 41.037000 0.069000
-19.882000 37.606000 0.072000
-19.131000 37.684000 0.068000
-15.892000 39.547000 0.054000
-15.740000 37.467000 0.097000
-20.282000 37.889000 0.071000
-19.207000 37.834000 0.064000
-17.851000 38.923000 0.065000
-16.338000 38.841000 0.064000
-19.892000 37.308000 0.065000
-16.517000 39.666000 0.065000
-19.037000 39.916000 0.056000
-15.363000 38.569000 0.074000
-18.367000 39.684000 0.054000
-18.680000 38.060000 0.078000
-16.597000 39.511000 0.066000
-19.557000 39.180000 0.053000
-15.514000 39.503000 0.055000
-15.346000 38.301000 0.097000
-15.921000 38.708000 0.068000
-17.796000 38.086000 0.079000
-17.699000 37.665000 0.058000
-16.222000 40.595000 0.040000
-18.659000 37.166000 0.066000
-19.192000 40.984000 0.054000
-16.853000 39.962000 0.064000
-16.668000 40.339000 0.058000
-17.664000 37.063000 0.091000
-20.025000 36.928000 0.062000
-19.735000 41.138000 0.062000
-16.016000 39.276000 0.059000
-16.311000 39.474000 0.059000
-19.699000 39.051000 0.045000
-18.738000 40.744000 0.056000
-19.665000 38.401000 0.063000
-16.727000 37.958000 0.079000
-15.593000 38.100000 0.078000
-17.215000 37.434000 0.067000
-16.454000 37.270000 0.076000
-17.794000 37.736000 0.080000
-19.666000 40.723000 0.051000
-18.024000 38.371000 0.065000
-16.778000 39.527000 0.068000
-16.798000 38.908000 0.072000
-18.845000 40.614000 0.056000
-15.365000 38.633000 0.072000
-19.523000 36.844000 0.091000
-18.184000 40.760000 0.054000
-16.447000 40.384000 0.055000
-19.572000 37.077000 0.067000
-18.595000 41.177000 0.060000
-20.449000 39.999000 0.065000
-20.319000 39.571000 0.048000
-16.824000 38.618000 0.076000
-16.017000 40.278000 0.042000
-17.069000 40.239000 0.060000
-18.019000 39.310000 0.063000
-16.121000 39.347000 0.058000
-18.425000 38.852000 0.069000
-18.720000 37.735000 0.081000
-15.987000 37.971000 0.079000
-18.951000 40.516000 0.056000
-17.356000 39.399000 0.064000
-16.863000 37.773000 0.078000
-17.599000 38.423000 0.071000
-17.869000 38.599000 0.074000
-16.358000 37.119000 0.086000
-19.745000 36.850000 0.095000
-17.652000 36.882000 0.090000
-16.606000 37.276000 0.079000
-19.968000 37.057000 0.061000
-19.359000 37.444000 0.068000
-19.112000 37.452000 0.074000
-19.277000 40.301000 0.053000
-16.028000 39.448000 0.057000
-18.702000 40.424000 0.058000
-15.748000 37.445000 0.095000
-16.611000 39.571000 0.067000
-17.212000 40.379000 0.063000
-19.214000 37.654000 0.066000
-20.398000 39.996000 0.048000
-19.451000 37.027000 0.068000
-19.035000 40.996000 0.056000
-19.115000 37.297000 0.075000
-19.845000 38.919000 0.045000
-15.489000 38.369000 0.076000
-16.178000 37.690000 0.082000
-17.509000 40.246000 0.066000
-18.450000 40.664000 0.056000
-15.501000 37.934000 0.080000
-17.908000 40.378000 0.058000
-17.076000 40.489000 0.056000
-15.297000 39.289000 0.070000
-16.731000 37.750000 0.079000
-19.845000 36.853000 0.080000
-19.666000 38.910000 0.048000
-18.649000 36.988000 0.069000
-17.312000 38.744000 0.068000
-18.991000 39.522000 0.067000
-17.572000 39.796000 0.066000
-15.288000 39.221000 0.066000
-18.647000 37.685000 0.071000
-15.314000 39.049000 0.063000
-18.159000 39.114000 0.060000
-15.940000 37.825000 0.081000
-17.050000 40.595000 0.055000
-20.069000 38.152000 0.065000
-17.225000 39.090000 0.063000
-18.066000 40.705000 0.054000
-20.451000 39.940000 0.059000
-15.650000 38.550000 0.071000
-15.684000 38.846000 0.066000
-17.755000 39.462000 0.066000
-15.577000 39.827000 0.045000
-17.614000 39.489000 0.063000
-15.542000 39.122000 0.063000
-17.025000 38.948000 0.066000
-17.117000 39.670000 0.064000
-17.031000 39.744000 0.065000
-16.900000 40.341000 0.059000
-17.114000 37.684000 0.078000
-19.663000 40.073000 0.052000
-18.251000 39.146000 0.059000
-17.936000 37.604000 0.066000
-18.646000 38.432000 0.068000
-19.043000 37.224000 0.074000
-18.800000 36.869000 0.082000
-19.008000 40.879000 0.054000
-18.738000 38.095000 0.079000
-17.485000 38.593000 0.069000
-17.031000 39.154000 0.062000
-18.965000 40.996000 0.057000
-18.958000 40.455000 0.056000
-19.526000 38.324000 0.066000
-18.458000 38.112000 0.077000
-17.834000 40.998000 0.054000
-20.441000 40.120000 0.067000
-16.005000 39.991000 0.046000
-17.771000 40.717000 0.056000
-15.572000 39.402000 0.061000
-18.206000 37.704000 0.074000
-15.699000 39.205000 0.062000
-17.611000 38.207000 0.075000
-19.360000 40.415000 0.052000
-19.431000 38.322000 0.065000
-19.843000 40.183000 0.051000
-19.424000 41.213000 0.056000
-18.072000 37.788000 0.074000
-18.995000 40.586000 0.055000
-20.298000 39.483000 0.048000
-16.746000 40.124000 0.061000
-16.939000 39.714000 0.066000
-20.327000 39.540000 0.048000
-18.413000 40.456000 0.058000
-19.527000 40.075000 0.053000
-15.670000 38.539000 0.071000
-17.426000 37.847000 0.077000
-18.711000 38.515000 0.073000
-17.087000 37.464000 0.071000
-20.102000 38.119000 0.066000
-15.757000 39.142000 0.062000
-18.986000 38.011000 0.066000
-19.923000 37.517000 0.072000
-17.841000 38.446000 0.066000
-17.312000 39.656000 0.062000
-15.794000 38.094000 0.078000
-16.839000 37.574000 0.079000
-19.817000 39.051000 0.045000
-15.541000 38.676000 0.069000
-17.633000 39.741000 0.066000
-20.398000 39.340000 0.048000
-19.673000 38.254000 0.067000
-15.821000 37.494000 0.091000
-16.489000 40.304000 0.057000
-20.422000 38.134000 0.069000
-17.844000 38.573000 0.071000
-16.045000 38.094000 0.077000
-19.775000 40.123000 0.051000
-19.963000 39.337000 0.046000
-19.167000 37.302000 0.074000
-19.210000 40.921000 0.054000
-19.961000 40.150000 0.058000
-19.322000 37.708000 0.065000
-18.068000 40.979000 0.053000
-15.346000 38.227000 0.089000
-17.699000 39.358000 0.068000
-16.924000 38.051000 0.078000
-17.816000 39.573000 0.065000
-18.086000 40.220000 0.055000
-18.688000 38.529000 0.073000
-17.170000 40.440000 0.059000
-17.319000 38.887000 0.066000
-19.156000 37.000000 0.074000
-17.601000 40.770000 0.060000
-16.300000 36.968000 0.087000
-17.055000 39.402000 0.067000
-18.112000 40.418000 0.055000
-17.185000 37.622000 0.078000
-19.795000 40.582000 0.060000
-18.809000 39.616000 0.056000
-20.320000 38.797000 0.048000
-17.326000 37.741000 0.078000
-19.948000 41.192000 0.052000
-19.056000 40.127000 0.056000
-17.195000 37.928000 0.077000
-15.807000 37.584000 0.091000
-16.389000 37.808000 0.080000
-18.099000 38.361000 0.067000
-17.301000 37.346000 0.073000
-17.572000 37.044000 0.086000
-16.641000 37.391000 0.083000
-19.556000 36.915000 0.067000
-16.719000 37.252000 0.084000
-19.550000 40.330000 0.052000
-19.640000 37.483000 0.066000
-15.564000 37.673000 0.082000
-17.657000 40.892000 0.062000
-19.051000 39.254000 0.053000
-17.259000 37.099000 0.066000
-18.516000 39.182000 0.063000
-17.214000 39.123000 0.063000
-17.682000 37.840000 0.074000
-16.567000 39.040000 0.063000
-19.497000 41.095000 0.051000
-17.582000 37.036000 0.086000
-19.547000 38.192000 0.067000
-18.619000 40.571000 0.058000
-19.597000 37.200000 0.067000
-15.832000 37.267000 0.094000
-17.369000 39.159000 0.064000
-17.562000 38.708000 0.068000
-17.097000 39.000000 0.063000
-18.853000 39.784000 0.058000
-17.179000 38.930000 0.065000
-15.495000 39.871000 0.045000
-17.195000 40.060000 0.063000
-18.822000 37.569000 0.071000
-15.741000 38.514000 0.072000
-17.394000 37.897000 0.077000
-16.349000 39.842000 0.060000
-17.549000 37.735000 0.071000
-15.527000 37.650000 0.100000
-17.369000 39.880000 0.064000
-15.419000 37.829000 0.080000
-18.413000 39.884000 0.054000
-18.937000 39.792000 0.057000
-16.579000 37.688000 0.086000
-18.554000 37.151000 0.061000
-19.830000 37.836000 0.070000
-17.533000 40.040000 0.067000
-15.344000 39.173000 0.071000
-16.972000 39.544000 0.067000
-18.076000 39.740000 0.058000
-18.607000 40.416000 0.058000
-15.443000 37.641000 0.097000
-17.553000 39.912000 0.066000
-19.541000 38.938000 0.064000
-16.429000 37.509000 0.090000
-19.530000 40.066000 0.053000
-17.009000 40.758000 0.057000
-17.230000 39.542000 0.064000
-17.661000 39.872000 0.066000
-18.875000 39.529000 0.056000
-17.964000 40.166000 0.057000
-17.992000 40.047000 0.058000
-18.975000 39.717000 0.058000
-16.995000 38.184000 0.077000
-19.161000 39.275000 0.056000
-18.654000 39.084000 0.065000
-18.308000 38.112000 0.083000
-16.862000 39.907000 0.065000
-20.233000 39.457000 0.048000
-15.245000 38.665000 0.070000
-18.015000 38.224000 0.074000
-19.532000 38.099000 0.067000
-15.914000 38.054000 0.078000
-15.783000 39.615000 0.052000
-18.757000 37.393000 0.070000
-17.200000 38.311000 0.074000
-18.371000 41.067000 0.056000
-16.428000 39.504000 0.062000
-15.722000 39.728000 0.047000
-16.316000 38.285000 0.081000
-18.615000 41.078000 0.059000
-20.420000 40.048000 0.058000
-19.553000 38.934000 0.060000
-20.329000 39.391000 0.048000
-16.510000 37.910000 0.080000
-16.353000 39.201000 0.059000
-18.065000 40.830000 0.053000
-18.092000 38.129000 0.083000
-20.387000 40.482000 0.058000
-15.470000 38.694000 0.070000
-19.616000 38.303000 0.066000
-15.853000 38.836000 0.066000
-16.506000 39.025000 0.062000
-16.980000 40.658000 0.056000
-18.052000 41.137000 0.053000
-15.585000 37.628000 0.090000
-15.729000 39.733000 0.047000
-16.192000 40.441000 0.042000
-18.168000 39.148000 0.060000
-18.057000 39.350000 0.062000
-20.396000 38.880000 0.049000
-19.018000 41.140000 0.057000
-18.061000 39.866000 0.057000
-19.477000 38.146000 0.066000
-15.894000 39.794000 0.045000
-17.661000 40.580000 0.059000
-19.185000 41.184000 0.054000
-17.792000 39.156000 0.066000
-19.947000 38.928000 0.046000
-17.975000 38.403000 0.065000
-20.080000 38.418000 0.060000
-15.947000 36.927000 0.087000
-20.146000 39.219000 0.047000
-18.962000 40.908000 0.055000
-18.820000 41.139000 0.060000
-15.927000 40.203000 0.041000
-18.073000 40.418000 0.055000
-17.299000 38.725000 0.068000
-20.098000 38.974000 0.047000
-17.493000 37.921000 0.077000
-19.770000 39.633000 0.050000
-19.220000 38.136000 0.064000
-16.591000 40.489000 0.056000
-17.378000 37.150000 0.075000
-17.383000 38.911000 0.067000
-17.855000 40.169000 0.059000
-19.479000 37.734000 0.068000
-19.046000 39.421000 0.072000
-20.080000 38.766000 0.052000
-19.168000 37.134000 0.074000
-16.093000 37.968000 0.079000
-16.801000 40.423000 0.058000
-20.268000 38.161000 0.064000
-18.640000 38.086000 0.081000
-18.113000 39.214000 0.061000
-19.246000 37.314000 0.072000
-19.712000 40.647000 0.048000
-20.166000 37.751000 0.072000
-18.293000 40.429000 0.057000
-19.805000 37.442000 0.066000
-17.441000 38.961000 0.067000
-17.136000 38.311000 0.074000
-18.958000 41.011000 0.057000
-17.858000 39.078000 0.064000
-17.535000 39.484000 0.062000
-20.000000 38.769000 0.052000
-20.086000 39.305000 0.046000
-17.245000 37.155000 0.066000
-16.247000 38.322000 0.079000
-19.384000 37.286000 0.069000
-18.246000 38.585000 0.073000
-20.055000 40.212000 0.053000
-16.154000 38.974000 0.063000
-20.111000 39.565000 0.048000
-19.812000 40.124000 0.051000
-17.917000 39.180000 0.065000
-16.131000 38.690000 0.070000
-19.208000 37.083000 0.073000
-18.060000 40.127000 0.056000
-19.706000 40.451000 0.047000
-17.831000 40.430000 0.059000
-19.789000 38.446000 0.062000
-16.362000 38.712000 0.069000
-16.488000 38.987000 0.062000
-15.393000 39.925000 0.044000
-16.950000 39.654000 0.066000
-15.253000 38.706000 0.069000
-17.892000 41.103000 0.053000
-19.630000 37.571000 0.065000
-20.174000 39.137000 0.047000
-19.050000 37.139000 0.074000
-19.314000 39.771000 0.056000
-19.774000 36.859000 0.066000
-18.484000 40.651000 0.057000
-19.990000 37.776000 0.071000
-16.692000 37.452000 0.081000
-18.203000 37.740000 0.074000
-16.427000 39.975000 0.060000
-17.419000 37.952000 0.077000
-18.543000 38.981000 0.066000
-16.435000 38.976000 0.062000
-18.039000 40.285000 0.056000
-17.204000 40.151000 0.063000
-15.557000 37.703000 0.082000
-16.706000 37.568000 0.076000
-19.503000 39.340000 0.049000
-19.853000 37.926000 0.070000
-19.510000 37.966000 0.067000
-19.981000 41.145000 0.039000
-19.812000 38.995000 0.045000
-15.350000 38.538000 0.074000
-19.149000 37.795000 0.064000
-15.974000 39.744000 0.049000
-18.956000 39.211000 0.056000
-17.536000 39.998000 0.067000
-19.495000 40.375000 0.050000
-16.023000 37.782000 0.081000
-15.776000 37.943000 0.080000
-16.392000 39.185000 0.060000
-19.284000 39.760000 0.056000
-17.552000 39.612000 0.064000
-15.832000 38.305000 0.076000
-16.398000 38.857000 0.064000
-19.109000 37.119000 0.075000
-19.650000 40.337000 0.051000
-18.674000 40.533000 0.058000
-17.674000 38.486000 0.069000
-18.761000 37.060000 0.074000
-17.751000 39.967000 0.062000
-17.763000 39.795000 0.062000
-16.227000 37.785000 0.080000
-19.907000 39.969000 0.050000
-19.484000 37.961000 0.067000
-19.555000 40.763000 0.051000
-18.607000 40.248000 0.059000
-16.638000 37.340000 0.083000
-15.352000 39.834000 0.049000
-19.346000 40.417000 0.052000
-19.948000 38.098000 0.069000
-19.251000 37.940000 0.065000
-19.999000 40.574000 0.050000
-19.202000 37.136000 0.073000
-20.176000 38.762000 0.051000
-16.064000 39.531000 0.070000
-18.086000 39.046000 0.062000
-19.532000 40.250000 0.052000
-20.064000 38.349000 0.061000
-17.765000 40.419000 0.059000
-17.842000 40.045000 0.060000
-16.064000 38.376000 0.076000
-19.295000 37.965000 0.065000
-19.303000 39.694000 0.058000
-17.933000 41.046000 0.053000
-15.985000 40.175000 0.043000
-19.714000 40.357000 0.049000
-19.147000 40.498000 0.054000
-16.111000 37.129000 0.085000
-17.940000 40.324000 0.058000
-20.039000 40.683000 0.049000
-16.284000 36.949000 0.087000
-17.774000 39.844000 0.061000
-18.381000 39.949000 0.054000
-15.920000 39.537000 0.054000
-20.403000 39.636000 0.048000
-16.465000 36.837000 0.072000
-15.835000 39.435000 0.057000
-15.865000 38.436000 0.073000
-18.509000 37.029000 0.061000
-18.538000 40.949000 0.056000
-19.422000 38.244000 0.066000
-20.388000 40.096000 0.063000
-15.930000 40.029000 0.043000
-19.838000 38.067000 0.069000
-19.154000 37.631000 0.068000
-18.680000 40.268000 0.059000
-17.838000 38.951000 0.065000
-15.647000 39.382000 0.060000
-18.614000 38.039000 0.080000
-15.331000 39.662000 0.069000
-19.227000 40.390000 0.054000
-16.397000 37.290000 0.088000
-19.841000 40.788000 0.053000
-17.680000 37.223000 0.093000
-19.296000 37.811000 0.066000
-16.719000 38.152000 0.079000
-19.965000 39.270000 0.046000
-17.849000 40.595000 0.057000
-19.922000 39.628000 0.048000
-18.782000 40.469000 0.058000
-18.577000 39.848000 0.056000
-17.055000 38.761000 0.071000
-16.239000 39.704000 0.058000
-16.285000 39.406000 0.058000
-15.575000 38.046000 0.079000
-16.356000 40.530000 0.047000
-18.512000 37.395000 0.073000
-17.657000 38.291000 0.075000
-18.043000 40.269000 0.056000
-17.320000 40.599000 0.061000
-19.666000 40.792000 0.056000
-19.287000 39.905000 0.055000
-18.616000 39.858000 0.056000
-18.193000 40.454000 0.055000
-15.249000 38.837000 0.065000
-17.121000 39.225000 0.063000
-17.496000 39.012000 0.066000
-16.324000 39.494000 0.060000
-17.491000 39.895000 0.065000
-17.775000 36.935000 0.093000
-20.203000 38.948000 0.048000
-16.741000 39.144000 0.068000
-17.634000 40.277000 0.064000
-17.990000 40.492000 0.056000
-18.148000 40.862000 0.054000
-18.004000 39.602000 0.062000
-17.918000 38.918000 0.064000
-19.095000 37.643000 0.069000
-19.092000 40.440000 0.055000
-18.165000 39.580000 0.059000
-16.680000 38.037000 0.079000
-19.302000 37.255000 0.071000
-18.434000 38.466000 0.072000
-16.359000 37.735000 0.081000
-19.796000 39.887000 0.052000
-17.110000 37.363000 0.063000
-16.422000 39.510000 0.062000
-15.579000 37.943000 0.080000
-16.232000 39.910000 0.055000
-20.348000 39.788000 0.059000
-18.266000 38.314000 0.072000
-15.954000 37.918000 0.079000
-16.194000 37.256000 0.086000
-16.382000 37.207000 0.086000
-19.483000 38.726000 0.064000
-16.688000 40.262000 0.059000
-15.761000 38.504000 0.072000
-16.967000 38.941000 0.067000
-15.895000 39.216000 0.060000
-17.509000 39.789000 0.065000
-17.293000 37.546000 0.076000
-15.742000 37.829000 0.081000
-16.063000 36.948000 0.083000
-19.789000 37.311000 0.066000
-16.870000 40.389000 0.058000
-18.511000 39.682000 0.055000
-16.593000 39.885000 0.065000
-16.378000 39.350000 0.060000
-18.999000 40.347000 0.056000
-18.208000 37.406000 0.065000
-18.044000 39.163000 0.062000
-19.124000 38.313000 0.063000
-16.933000 38.418000 0.076000
-17.931000 41.031000 0.053000
-20.264000 39.082000 0.048000
-19.402000 40.727000 0.050000
-16.864000 40.596000 0.057000
-15.316000 38.866000 0.066000
-17.519000 39.905000 0.066000
-17.148000 40.614000 0.056000
-17.152000 38.047000 0.077000
-16.885000 39.734000 0.067000
-18.969000 39.888000 0.056000
-17.963000 40.089000 0.058000
-15.674000 37.978000 0.079000
-16.267000 37.404000 0.085000
-15.520000 39.544000 0.054000
-19.016000 40.822000 0.053000
-15.959000 38.998000 0.063000
-20.216000 39.696000 0.049000
-19.435000 40.779000 0.050000
-18.476000 40.604000 0.057000
-16.567000 39.856000 0.065000
-15.878000 39.186000 0.061000
-20.407000 37.898000 0.070000
-18.421000 40.355000 0.058000
-16.953000 39.596000 0.067000
-17.151000 38.877000 0.066000
-16.297000 38.983000 0.062000
-18.156000 37.728000 0.074000
-17.412000 40.572000 0.060000
-18.082000 40.258000 0.055000
-19.771000 37.732000 0.070000
-19.705000 37.116000 0.066000
-20.365000 38.153000 0.067000
-17.623000 39.622000 0.065000
-19.662000 38.399000 0.064000
-18.872000 39.271000 0.056000
-16.153000 37.433000 0.084000
-19.451000 36.964000 0.068000
-17.491000 38.685000 0.068000
-18.270000 39.338000 0.059000
-19.477000 39.127000 0.055000
-20.462000 38.505000 0.056000
-18.583000 38.468000 0.072000
-16.939000 40.722000 0.057000
-20.397000 38.829000 0.049000
-18.660000 40.344000 0.059000
-17.095000 39.518000 0.066000
-20.241000 39.494000 0.048000
-16.096000 38.028000 0.078000
-15.861000 37.368000 0.086000
-17.980000 41.144000 0.052000
-16.154000 39.772000 0.055000
-20.329000 38.193000 0.065000
-20.207000 39.581000 0.049000
-17.701000 40.909000 0.059000
-18.142000 38.458000 0.072000
-15.624000 38.421000 0.074000
-19.900000 37.987000 0.069000
-19.930000 37.711000 0.072000
-20.397000 37.841000 0.071000
-16.495000 39.055000 0.062000
-16.120000 37.422000 0.084000
-17.335000 38.837000 0.067000
-16.142000 38.574000 0.073000
-18.024000 40.219000 0.056000
-15.832000 37.773000 0.081000
-17.644000 38.213000 0.075000
-19.139000 37.252000 0.074000
-20.125000 40.673000 0.066000
-19.523000 40.670000 0.049000
-18.619000 37.066000 0.066000
-16.340000 37.333000 0.086000
-18.255000 38.131000 0.086000
-17.348000 40.019000 0.065000
-18.186000 39.215000 0.060000
-17.302000 40.047000 0.064000
-17.479000 39.285000 0.064000
-15.906000 38.344000 0.075000
-16.982000 37.899000 0.078000
-20.471000 39.467000 0.065000
-20.075000 39.095000 0.047000
-15.361000 37.778000 0.089000
-15.626000 39.083000 0.063000
-16.148000 37.371000 0.085000
-20.182000 39.841000 0.053000
-17.691000 38.485000 0.068000
-17.605000 40.922000 0.065000
-18.801000 40.907000 0.056000
-17.445000 37.683000 0.078000
-19.472000 38.128000 0.066000
-19.937000 36.856000 0.077000
-17.590000 40.854000 0.062000
-17.037000 39.665000 0.065000
-19.846000 40.061000 0.051000
-19.106000 40.899000 0.054000
-18.625000 39.933000 0.056000
-18.246000 39.418000 0.059000
-17.327000 40.192000 0.065000
-18.159000 40.204000 0.054000
-15.507000 37.903000 0.080000
-18.155000 41.088000 0.054000
-15.795000 38.195000 0.077000
-16.595000 39.129000 0.064000
-18.786000 37.993000 0.074000
-20.438000 37.720000 0.074000
-15.506000 39.541000 0.054000
-19.665000 39.954000 0.053000
-19.921000 37.982000 0.070000
-16.109000 39.487000 0.071000
-16.834000 37.558000 0.080000
-16.846000 40.382000 0.058000
-15.346000 39.001000 0.064000
-17.263000 37.100000 0.066000
-17.583000 38.250000 0.075000
-19.324000 37.048000 0.071000
-17.222000 39.152000 0.062000
-17.066000 37.351000 0.069000
-17.204000 38.652000 0.070000
-15.809000 38.623000 0.070000
-17.660000 37.232000 0.092000
-16.145000 40.407000 0.042000
-20.201000 39.443000 0.048000
-18.277000 38.315000 0.072000
-17.087000 38.972000 0.064000
-20.202000 38.281000 0.060000
-15.545000 38.000000 0.079000
-17.674000 40.558000 0.059000
-19.537000 39.258000 0.051000
-18.505000 37.389000 0.060000
-17.129000 38.690000 0.071000
-16.678000 36.841000 0.092000
-19.814000 40.442000 0.047000
-17.081000 38.181000 0.076000
-19.059000 39.515000 0.067000
-16.405000 38.197000 0.080000
-18.049000 38.695000 0.068000
-19.414000 37.765000 0.067000
-17.924000 39.580000 0.063000
-18.389000 39.378000 0.057000
-18.060000 39.273000 0.062000
-19.497000 37.881000 0.068000
-18.228000 38.392000 0.071000
-16.895000 37.476000 0.081000
-16.592000 37.986000 0.080000
-16.985000 38.770000 0.072000
-16.865000 38.627000 0.075000
-19.513000 37.929000 0.067000
-15.772000 38.478000 0.072000
-15.463000 37.748000 0.081000
-18.025000 38.464000 0.071000
-18.538000 37.952000 0.084000
-19.500000 41.018000 0.051000
-17.276000 39.603000 0.063000
-15.366000 38.986000 0.064000
-15.460000 38.298000 0.077000
-19.942000 40.064000 0.052000
-17.860000 40.785000 0.055000
-17.618000 38.241000 0.075000
-17.353000 38.426000 0.072000
-17.609000 40.500000 0.060000
-16.609000 39.815000 0.066000
-17.705000 40.876000 0.058000
-16.916000 40.033000 0.063000
-16.506000 37.228000 0.084000
-17.029000 39.046000 0.063000
-15.707000 39.059000 0.063000
-17.090000 40.308000 0.059000
-16.929000 37.869000 0.078000
-19.422000 37.430000 0.067000
-18.860000 40.744000 0.055000
-18.151000 40.039000 0.055000
-16.584000 40.261000 0.058000
-19.444000 40.953000 0.051000
-17.102000 40.171000 0.061000
-18.778000 41.031000 0.058000
-20.053000 40.246000 0.050000
-18.466000 40.902000 0.055000
-19.316000 37.569000 0.066000
-18.852000 37.316000 0.072000
-19.872000 37.687000 0.071000
-16.760000 38.603000 0.077000
-19.646000 39.846000 0.053000
-18.564000 40.192000 0.057000
-19.755000 37.851000 0.070000
-18.208000 40.081000 0.054000
-20.391000 38.170000 0.067000
-16.326000 37.978000 0.079000
-20.159000 38.778000 0.051000
-18.565000 40.955000 0.057000
-17.560000 37.142000 0.086000
-19.135000 37.785000 0.065000
-18.809000 36.926000 0.081000
-16.801000 39.634000 0.069000
-19.838000 38.966000 0.045000
-15.417000 39.449000 0.084000
-17.664000 37.853000 0.078000
-17.932000 39.088000 0.063000
-17.326000 39.676000 0.062000
-17.448000 37.953000 0.077000
-17.536000 41.015000 0.065000
-19.326000 39.045000 0.056000
-17.898000 41.080000 0.053000
-16.258000 38.634000 0.073000
-18.754000 39.621000 0.055000
-18.994000 39.329000 0.053000
-16.928000 37.231000 0.100000
-15.908000 39.978000 0.043000
-19.676000 37.980000 0.069000
-16.021000 37.924000 0.079000
-19.923000 37.971000 0.070000
-18.737000 37.699000 0.078000
-19.023000 38.026000 0.064000
-19.346000 38.405000 0.066000
-15.758000 39.756000 0.046000
-16.211000 39.335000 0.058000
-16.637000 38.574000 0.077000
-20.374000 37.353000 0.083000
-16.561000 38.170000 0.079000
-18.155000 39.928000 0.055000
-18.079000 39.276000 0.062000
-18.386000 40.211000 0.056000
-19.886000 40.433000 0.049000
-15.762000 38.336000 0.075000
-18.756000 37.938000 0.076000
-20.130000 37.027000 0.067000
-17.720000 39.255000 0.068000
-18.190000 39.183000 0.060000
-17.163000 39.753000 0.063000
-16.220000 38.395000 0.078000
-18.293000 40.918000 0.054000
-17.738000 37.169000 0.096000
-15.612000 39.118000 0.063000
-18.561000 37.570000 0.066000
-18.516000 38.505000 0.072000
-19.079000 37.089000 0.074000
-19.517000 38.735000 0.062000
-19.408000 40.396000 0.051000
-19.415000 39.314000 0.051000
-18.155000 40.320000 0.054000
-17.671000 40.017000 0.056000
-16.369000 40.405000 0.051000
-19.073000 41.213000 0.056000
-17.319000 40.529000 0.062000
-16.091000 40.024000 0.049000
-20.189000 36.876000 0.096000
-19.633000 39.411000 0.049000
-19.898000 36.860000 0.065000
-15.617000 39.509000 0.056000
-20.440000 38.569000 0.053000
-18.383000 38.718000 0.072000
-18.444000 41.038000 0.056000
-16.018000 39.550000 0.066000
-20.244000 37.625000 0.073000
-16.057000 40.120000 0.046000
-18.884000 37.810000 0.071000
-17.999000 40.420000 0.056000
-20.071000 38.681000 0.053000
-20.394000 40.155000 0.061000
-19.139000 40.758000 0.053000
-18.847000 39.591000 0.056000
-16.794000 39.173000 0.066000
-18.647000 38.026000 0.079000
-16.286000 40.419000 0.047000
-18.631000 40.600000 0.058000
-17.066000 39.087000 0.062000
-17.075000 38.738000 0.071000
-17.319000 37.290000 0.073000
-20.234000 39.379000 0.047000
-18.757000 37.654000 0.071000
-15.796000 37.990000 0.079000
-17.077000 38.613000 0.072000
-19.732000 37.674000 0.070000
-18.929000 40.743000 0.055000
-16.562000 38.445000 0.080000
-16.261000 40.289000 0.050000
-17.104000 40.192000 0.060000
-18.468000 38.969000 0.069000
-19.801000 38.365000 0.063000
-16.731000 38.385000 0.079000
-19.543000 41.113000 0.050000
-19.894000 39.543000 0.047000
-16.699000 37.779000 0.079000
-15.403000 39.138000 0.065000
-19.001000 38.163000 0.064000
-18.550000 40.237000 0.058000
-15.299000 38.575000 0.073000
-19.087000 37.986000 0.064000
-17.077000 39.391000 0.067000
-19.408000 37.569000 0.066000
-20.397000 38.159000 0.067000
-16.312000 37.471000 0.087000
-19.054000 38.986000 0.061000
-16.198000 39.510000 0.067000
-19.777000 40.202000 0.051000
-20.334000 37.314000 0.082000
-19.832000 39.951000 0.051000
-19.155000 39.789000 0.056000
-16.863000 40.645000 0.064000
-16.667000 37.832000 0.079000
-18.069000 39.722000 0.059000
-17.160000 38.840000 0.067000
-20.370000 38.741000 0.049000
-20.245000 38.884000 0.048000
-19.819000 37.471000 0.066000
-19.533000 40.107000 0.053000
-18.522000 39.468000 0.049000
-15.569000 38.886000 0.065000
-16.185000 40.106000 0.051000
-19.586000 39.471000 0.050000
-18.870000 40.402000 0.057000
-19.926000 38.581000 0.054000
-18.709000 40.147000 0.058000
-17.699000 37.786000 0.079000
-15.349000 39.806000 0.050000
-15.214000 39.125000 0.062000
-19.510000 39.038000 0.054000
-16.144000 38.791000 0.067000
-18.741000 39.558000 0.054000
-17.789000 38.018000 0.078000
-19.293000 36.872000 0.071000
-18.492000 40.699000 0.056000
-19.964000 38.051000 0.069000
-15.647000 39.847000 0.044000
-17.066000 37.899000 0.078000
-18.922000 37.138000 0.072000
-18.018000 38.628000 0.075000
-17.593000 39.709000 0.065000
-17.641000 40.589000 0.059000
-15.601000 38.553000 0.072000
-15.900000 38.211000 0.076000
-18.293000 39.738000 0.054000
-16.083000 38.165000 0.078000
-15.648000 38.780000 0.067000
-16.677000 40.531000 0.056000
-17.395000 37.464000 0.076000
-16.719000 38.215000 0.079000
-19.154000 40.250000 0.055000
-19.051000 39.009000 0.060000
-17.102000 39.047000 0.062000
-16.829000 39.049000 0.068000
-19.151000 38.257000 0.063000
-16.921000 39.240000 0.065000
-18.329000 40.183000 0.054000
-16.372000 40.365000 0.052000
-15.535000 37.919000 0.080000
-17.514000 40.263000 0.065000
-16.591000 37.890000 0.080000
-19.193000 37.280000 0.073000
-19.979000 36.985000 0.062000
-19.316000 36.960000 0.071000
-17.779000 40.979000 0.055000
-20.339000 37.973000 0.068000
-17.187000 38.594000 0.071000
-18.068000 39.220000 0.062000
-19.504000 39.784000 0.055000
-17.820000 39.984000 0.062000
-15.895000 38.670000 0.069000
-17.550000 37.232000 0.086000
-17.244000 37.456000 0.069000
-16.676000 40.356000 0.058000
-17.711000 38.221000 0.076000
-15.346000 39.161000 0.070000
-20.453000 37.765000 0.073000
-19.534000 41.155000 0.052000
-19.252000 40.252000 0.054000
-19.991000 41.127000 0.046000
-16.461000 38.428000 0.080000
-16.822000 38.431000 0.077000
-18.587000 40.133000 0.057000
-20.225000 39.866000 0.063000
-16.563000 37.601000 0.093000
-17.502000 38.769000 0.067000
-16.518000 40.581000 0.054000
-16.178000 37.836000 0.080000
-16.128000 38.532000 0.074000
-15.985000 39.591000 0.051000
-19.106000 40.699000 0.053000
-15.527000 39.012000 0.064000
-17.527000 40.840000 0.060000
-15.790000 39.710000 0.048000
-16.661000 39.287000 0.066000
-15.451000 38.926000 0.065000
-19.624000 37.835000 0.069000
-19.401000 38.152000 0.066000
-17.290000 40.108000 0.064000
-17.443000 39.248000 0.064000
-15.836000 39.321000 0.059000
-19.381000 36.936000 0.069000
-19.139000 41.053000 0.055000
-16.172000 40.146000 0.050000
-17.324000 40.185000 0.065000
-18.245000 40.010000 0.053000
-18.848000 39.722000 0.058000
