-19.416000 37.299000 0.510000
-18.017000 38.068000 2.434000
-15.770000 41.014000 2.649000
-15.735000 37.253000 0.810000
-15.301000 41.160000 1.515000
-20.486000 39.452000 1.830000
-15.438000 37.835000 2.249000
-20.477000 39.878000 1.012000
-17.550000 40.780000 0.440000
-15.929000 40.631000 0.271000
-18.638000 38.911000 0.798000
-15.876000 39.576000 1.965000
-15.756000 40.212000 3.018000
-15.758000 39.039000 3.032000
-15.565000 37.265000 0.525000
-16.686000 40.633000 0.678000
-16.556000 40.989000 0.776000
-18.361000 39.160000 0.801000
-16.930000 38.833000 0.816000
-16.873000 40.828000 0.777000
-19.756000 41.252000 0.539000
-17.501000 38.681000 0.810000
-17.633000 39.794000 0.803000
-15.793000 40.381000 3.142000
-19.388000 38.172000 2.314000
-16.358000 38.015000 3.203000
-18.586000 39.240000 0.800000
-15.757000 39.277000 3.069000
-19.354000 37.220000 0.503000
-20.489000 38.347000 1.581000
-16.917000 37.576000 0.697000
-15.554000 36.955000 2.259000
-15.353000 39.518000 1.056000
-20.485000 38.591000 1.186000
-20.187000 40.424000 0.491000
-15.662000 38.155000 2.251000
-15.761000 37.699000 2.865000
-16.420000 41.020000 3.148000
-18.338000 39.601000 0.802000
-18.454000 38.546000 0.800000
-16.345000 41.017000 0.767000
-15.307000 37.184000 2.248000
-15.276000 38.658000 2.180000
-16.578000 40.623000 0.275000
-20.132000 41.237000 0.255000
-15.781000 39.470000 1.335000
-19.988000 39.657000 0.510000
-20.263000 40.356000 0.494000
-17.400000 40.946000 0.487000
-16.215000 39.584000 1.974000
-15.762000 39.143000 2.962000
-15.304000 40.521000 1.372000
-18.968000 39.209000 0.799000
-15.763000 40.188000 2.687000
-17.798000 38.157000 0.803000
-19.095000 37.054000 0.758000
-15.755000 38.489000 3.123000
-15.763000 38.421000 2.801000
-16.389000 40.632000 0.700000
-20.137000 39.836000 0.634000
-15.941000 39.497000 1.532000
-16.910000 41.065000 0.752000
-15.319000 40.632000 0.599000
-20.474000 39.007000 1.209000
-16.535000 37.974000 3.204000
-15.304000 37.626000 1.851000
-16.549000 40.625000 0.424000
-15.502000 39.497000 1.604000
-19.205000 41.235000 2.876000
-15.761000 37.506000 3.078000
-15.871000 39.541000 0.767000
-15.677000 39.477000 0.214000
-16.907000 40.640000 0.354000
-20.183000 38.837000 0.499000
-15.787000 36.946000 2.296000
-16.740000 40.634000 0.400000
-15.518000 40.119000 0.035000
-15.301000 37.971000 2.194000
-20.493000 40.045000 1.202000
-16.850000 37.368000 0.473000
-20.473000 39.097000 1.198000
-19.574000 41.250000 0.607000
-18.243000 39.934000 2.354000
-20.174000 41.108000 0.065000
-20.485000 39.428000 1.714000
-19.871000 40.798000 0.131000
-20.491000 40.494000 1.203000
-15.759000 40.101000 3.028000
-15.767000 40.667000 2.661000
-15.675000 39.463000 1.967000
-16.293000 36.821000 0.523000
-20.473000 38.501000 0.945000
-20.041000 40.760000 0.988000
-17.801000 38.146000 0.658000
-16.961000 36.985000 0.056000
-17.284000 38.558000 0.814000
-18.099000 39.027000 2.318000
-15.318000 39.599000 0.955000
-15.298000 38.044000 2.147000
-15.588000 39.431000 0.375000
-17.730000 38.449000 0.463000
-15.478000 40.099000 0.668000
-15.492000 36.943000 2.256000
-15.307000 39.585000 1.650000
-20.493000 40.559000 1.325000
-15.330000 38.679000 2.249000
-15.616000 38.860000 2.244000
-19.693000 40.758000 0.590000
-15.525000 37.014000 1.468000
-15.209000 38.562000 0.874000
-16.150000 36.824000 0.277000
-20.480000 39.557000 1.498000
-15.389000 39.490000 1.000000
-15.950000 39.495000 1.275000
-20.468000 39.388000 1.107000
-20.384000 36.994000 0.669000
-15.768000 38.723000 2.642000
-19.385000 39.105000 3.156000
-16.193000 37.556000 0.970000
-15.662000 39.906000 2.216000
-15.753000 39.466000 1.427000
-15.820000 39.697000 0.554000
-15.301000 40.763000 1.466000
-19.324000 41.245000 0.321000
-15.334000 37.413000 0.691000
-15.319000 36.932000 1.913000
-18.967000 38.870000 0.796000
-15.645000 40.609000 0.024000
-15.499000 39.754000 0.673000
-15.533000 40.646000 0.727000
-15.295000 39.694000 2.014000
-15.718000 37.699000 2.246000
-15.327000 38.482000 0.598000
-15.773000 40.683000 2.237000
-16.131000 39.567000 0.279000
-20.415000 39.630000 0.752000
-15.814000 40.630000 0.127000
-16.361000 36.825000 0.671000
-16.905000 40.725000 0.198000
-16.808000 41.131000 0.771000
-15.305000 37.963000 2.224000
-16.162000 40.634000 0.592000
-16.904000 38.694000 2.332000
-20.485000 39.622000 1.810000
-18.004000 38.079000 0.787000
-15.760000 39.821000 3.066000
-19.262000 36.946000 0.641000
-16.842000 40.636000 0.647000
-15.763000 37.614000 3.159000
-16.002000 39.524000 2.179000
-15.308000 40.707000 1.160000
-17.375000 38.426000 0.814000
-15.322000 38.149000 1.071000
-16.891000 40.644000 0.186000
-15.459000 37.531000 2.253000
-15.290000 39.846000 2.026000
-15.293000 39.744000 2.006000
-16.886000 37.285000 0.215000
-16.168000 39.633000 1.663000
-15.762000 37.748000 2.822000
-15.701000 38.888000 2.244000
-20.485000 39.227000 1.668000
-18.927000 41.233000 2.859000
-15.974000 36.815000 0.491000
-17.100000 40.894000 0.749000
-18.090000 38.105000 0.734000
-20.167000 41.250000 0.929000
-15.766000 40.405000 2.607000
-18.091000 39.946000 2.327000
-20.125000 41.083000 1.128000
-20.480000 39.424000 1.498000
-20.036000 41.262000 0.947000
-19.977000 37.052000 0.450000
-16.873000 38.668000 0.817000
-15.721000 38.557000 2.246000
-20.482000 38.806000 1.867000
-15.502000 40.277000 2.204000
-15.461000 39.411000 0.660000
-20.339000 39.482000 0.467000
-20.306000 40.685000 0.472000
-19.761000 41.253000 0.819000
-15.390000 39.764000 0.578000
-20.231000 37.063000 0.488000
-18.877000 39.314000 0.800000
-15.543000 40.131000 2.210000
-18.212000 39.728000 2.324000
-15.289000 38.707000 2.184000
-19.258000 39.945000 2.334000
-15.427000 39.417000 1.631000
-15.306000 37.145000 2.203000
-20.486000 39.135000 1.673000
-18.106000 38.691000 2.316000
-15.762000 40.512000 2.861000
-15.323000 37.340000 1.194000
-17.308000 38.083000 0.729000
-19.139000 38.608000 0.795000
-17.710000 38.196000 0.697000
-17.548000 38.633000 0.810000
-15.543000 37.092000 1.147000
-16.290000 38.019000 3.202000
-20.214000 40.124000 0.489000
-19.894000 41.142000 0.669000
-15.398000 39.417000 1.625000
-20.482000 39.094000 2.008000
-16.926000 38.699000 2.332000
-16.855000 38.992000 0.767000
-16.349000 40.882000 3.152000
-16.072000 39.543000 0.113000
-15.306000 40.547000 1.248000
-15.295000 38.156000 2.014000
-16.751000 38.890000 0.523000
-18.877000 41.237000 0.767000
-15.300000 38.052000 1.829000
-15.822000 40.686000 0.762000
-20.388000 40.241000 1.001000
-15.682000 39.493000 2.231000
-19.899000 40.856000 0.616000
-18.220000 39.661000 2.325000
-17.644000 38.781000 0.807000
-18.221000 38.105000 2.330000
-20.485000 38.793000 1.704000
-15.337000 38.344000 0.281000
-16.907000 40.752000 0.233000
-15.887000 39.492000 0.342000
-18.615000 36.888000 0.929000
-15.480000 37.402000 0.352000
-19.267000 39.032000 0.784000
-15.296000 40.114000 1.761000
-17.175000 40.939000 0.466000
-15.601000 37.543000 2.254000
-18.781000 39.283000 0.799000
-15.342000 38.322000 0.183000
-15.684000 39.423000 2.252000
-19.120000 41.235000 2.831000
-18.136000 38.677000 2.311000
-16.892000 40.210000 2.317000
-16.047000 39.602000 1.797000
-16.087000 40.754000 3.149000
-19.259000 39.181000 2.313000
-15.607000 39.814000 2.217000
-15.856000 39.574000 1.910000
-16.023000 40.627000 0.122000
-15.516000 37.091000 1.348000
-20.133000 40.226000 0.127000
-15.764000 37.658000 2.767000
-16.838000 39.331000 2.392000
-19.505000 41.249000 0.164000
-15.688000 38.080000 2.251000
-15.599000 40.211000 0.031000
-20.485000 39.879000 1.345000
-20.343000 39.461000 0.647000
-20.473000 38.923000 1.107000
-15.651000 41.068000 0.745000
-15.305000 40.196000 1.435000
-15.328000 39.552000 0.450000
-17.002000 38.031000 0.879000
-20.074000 40.734000 0.696000
-17.126000 41.042000 0.702000
-15.735000 40.988000 0.750000
-16.937000 37.570000 0.706000
-15.311000 37.011000 1.866000
-15.770000 39.323000 2.248000
-17.068000 37.327000 0.794000
-15.804000 37.017000 0.800000
-20.485000 38.659000 1.105000
-19.415000 36.951000 0.649000
-16.169000 39.523000 0.786000
-18.730000 39.282000 0.799000
-15.686000 39.342000 2.248000
-17.929000 38.124000 0.481000
-18.433000 39.577000 0.802000
-19.821000 41.070000 0.651000
-19.638000 41.248000 1.396000
-20.420000 39.550000 0.745000
-16.101000 39.608000 1.576000
-20.411000 37.267000 0.808000
-19.501000 41.247000 0.824000
-15.297000 38.307000 1.945000
-15.293000 38.480000 2.083000
-19.202000 41.243000 0.521000
-17.035000 38.233000 2.395000
-15.308000 37.268000 2.251000
-18.119000 39.805000 2.323000
-15.769000 39.079000 2.658000
-16.896000 38.338000 2.333000
-20.353000 40.271000 0.610000
-15.771000 40.148000 2.219000
-20.498000 40.053000 1.444000
-16.497000 37.567000 0.619000
-17.360000 39.736000 0.732000
-17.014000 38.041000 0.863000
-17.881000 38.128000 0.646000
-17.074000 38.294000 0.509000
-20.305000 41.259000 1.785000
-16.180000 39.625000 1.783000
-15.435000 40.141000 0.786000
-20.316000 40.343000 0.759000
-19.965000 41.255000 1.121000
-20.483000 38.499000 1.487000
-20.363000 37.912000 0.505000
-20.483000 38.654000 1.744000
-15.606000 40.711000 2.202000
-15.778000 37.644000 2.266000
-15.574000 37.551000 0.151000
-20.146000 40.028000 0.494000
-15.313000 39.279000 2.201000
-15.454000 38.689000 2.249000
-17.356000 38.579000 0.814000
-18.189000 37.343000 0.054000
-15.345000 38.100000 2.249000
-15.329000 37.839000 0.752000
-20.492000 40.063000 1.189000
-20.498000 40.909000 1.723000
-15.604000 40.750000 2.202000
-15.330000 37.810000 0.717000
-20.131000 39.411000 0.488000
-15.756000 40.195000 3.020000
-15.348000 37.153000 0.968000
-16.591000 40.957000 3.155000
-15.295000 40.609000 1.789000
-20.473000 38.510000 0.937000
-19.523000 41.248000 0.721000
-16.747000 40.634000 0.543000
-18.731000 41.232000 0.387000
-16.682000 39.190000 0.742000
-20.481000 40.956000 0.982000
-20.084000 40.143000 0.464000
-15.300000 41.179000 1.542000
-15.316000 40.521000 0.757000
-20.152000 41.264000 1.029000
-15.551000 37.645000 0.113000
-17.775000 38.422000 0.515000
-15.760000 37.933000 2.986000
-20.475000 38.374000 1.314000
-20.476000 39.567000 1.359000
-15.329000 38.133000 0.606000
-15.687000 39.453000 1.249000
-16.700000 36.971000 0.054000
-19.471000 38.569000 3.156000
-16.845000 39.440000 2.333000
-15.870000 39.512000 0.164000
-19.416000 38.958000 3.156000
-17.042000 37.925000 2.358000
-15.920000 39.868000 0.479000
-20.485000 38.729000 1.268000
-15.766000 39.116000 2.816000
-17.651000 38.994000 0.806000
-15.711000 38.154000 2.251000
-20.474000 39.749000 1.419000
-18.684000 41.237000 3.044000
-20.379000 38.603000 0.675000
-15.722000 37.325000 0.670000
-20.049000 40.714000 0.695000
-15.760000 37.847000 3.024000
-16.818000 37.939000 2.379000
-15.291000 39.404000 0.110000
-20.388000 38.023000 0.579000
-15.686000 37.154000 2.252000
-20.231000 40.867000 0.229000
-15.643000 40.480000 0.026000
-16.161000 39.550000 0.194000
-20.395000 37.232000 0.097000
-15.290000 40.900000 1.839000
-15.438000 39.408000 0.523000
-15.312000 37.591000 1.554000
-15.373000 39.473000 0.188000
-17.500000 38.517000 0.811000
-15.764000 40.445000 2.763000
-15.298000 40.750000 1.602000
-15.311000 38.058000 1.413000
-20.374000 38.158000 0.590000
-19.792000 41.252000 1.004000
-20.152000 39.490000 0.488000
-18.452000 41.226000 0.274000
-20.384000 39.430000 0.745000
-17.148000 36.921000 0.060000
-16.130000 40.636000 0.659000
-20.484000 39.704000 1.813000
-20.435000 41.057000 3.141000
-16.897000 37.301000 0.598000
-20.095000 40.821000 1.101000
-15.323000 40.405000 0.402000
-15.307000 38.127000 1.584000
-15.562000 39.460000 2.253000
-16.672000 38.984000 0.495000
-20.186000 37.128000 0.486000
-19.454000 41.245000 0.982000
-15.307000 39.995000 1.409000
-18.001000 39.309000 2.345000
-16.802000 39.021000 2.378000
-15.318000 40.546000 0.682000
-16.810000 39.018000 2.334000
-15.980000 41.082000 0.755000
-15.301000 40.426000 1.541000
-15.598000 40.635000 0.337000
-17.414000 39.731000 0.595000
-20.482000 39.005000 2.081000
-17.582000 39.743000 0.726000
-16.973000 38.348000 2.334000
-15.290000 40.799000 1.903000
-15.761000 40.618000 3.070000
-16.856000 39.099000 0.758000
-19.277000 38.552000 3.157000
-17.290000 40.644000 0.487000
-15.524000 36.998000 1.367000
-15.764000 40.612000 2.849000
-15.312000 37.186000 1.697000
-19.142000 41.241000 0.469000
-19.949000 40.346000 0.452000
-19.656000 40.966000 0.583000
-16.190000 40.633000 0.525000
-15.317000 38.140000 1.163000
-15.603000 40.031000 0.470000
-17.896000 38.523000 0.805000
-17.492000 40.754000 0.132000
-20.425000 40.152000 0.625000
-20.376000 40.436000 0.647000
-18.452000 38.676000 0.800000
-16.223000 39.566000 1.128000
-15.741000 39.463000 1.155000
-16.889000 37.033000 0.055000
-20.418000 38.736000 0.810000
-15.316000 37.059000 1.680000
-19.498000 41.245000 1.304000
-18.591000 41.229000 0.226000
-19.168000 41.234000 2.878000
-20.403000 37.986000 0.708000
-17.768000 39.764000 0.537000
-16.968000 38.218000 2.334000
-16.714000 38.822000 0.471000
-20.430000 39.346000 0.769000
-15.563000 39.922000 2.215000
-18.141000 38.148000 2.313000
-15.768000 40.747000 2.664000
-16.450000 37.293000 0.903000
-15.327000 38.355000 0.610000
-20.483000 39.639000 1.706000
-19.908000 41.256000 0.717000
-18.090000 39.152000 0.803000
-16.880000 39.654000 2.331000
-15.762000 37.547000 3.142000
-16.701000 40.702000 0.780000
-16.186000 36.825000 0.270000
-15.765000 41.167000 3.053000
-18.111000 38.912000 0.803000
-20.479000 38.754000 2.046000
-15.761000 37.859000 3.061000
-19.212000 41.235000 2.919000
-20.210000 41.241000 3.142000
-16.259000 36.821000 0.619000
-20.488000 40.440000 1.066000
-15.245000 38.559000 1.392000
-15.571000 39.428000 0.369000
-15.873000 40.938000 0.756000
-17.003000 39.550000 2.323000
-16.116000 40.633000 0.466000
-20.469000 39.066000 1.040000
-16.659000 39.071000 0.787000
-15.229000 39.019000 2.172000
-20.370000 37.772000 0.666000
-20.494000 39.995000 1.253000
-18.021000 38.490000 0.535000
-18.714000 41.233000 0.839000
-15.760000 40.117000 3.065000
-15.349000 39.514000 0.259000
-20.117000 40.809000 0.122000
-16.482000 37.869000 3.202000
-16.223000 39.582000 1.862000
-16.080000 40.754000 0.764000
-15.312000 39.629000 1.375000
-17.367000 40.939000 0.484000
-15.330000 37.079000 1.543000
-20.423000 39.491000 0.749000
-20.486000 39.246000 1.776000
-18.941000 39.594000 0.761000
-18.881000 38.482000 0.797000
-15.306000 40.322000 1.369000
-15.336000 39.533000 1.212000
-18.150000 38.374000 2.311000
-17.112000 40.931000 0.715000
-16.783000 39.985000 2.336000
-19.377000 39.130000 2.313000
-20.486000 39.078000 1.752000
-15.465000 39.812000 0.458000
-15.316000 40.409000 0.814000
-15.324000 38.304000 0.751000
-16.413000 36.820000 0.569000
-17.877000 38.121000 0.462000
-18.982000 41.230000 3.073000
-15.295000 39.815000 1.889000
-15.303000 37.387000 2.024000
-16.702000 38.824000 0.450000
-16.817000 38.626000 2.350000
-16.982000 37.398000 0.155000
-15.287000 40.849000 2.041000
-18.633000 36.865000 0.964000
-16.000000 40.637000 0.642000
-15.763000 38.255000 2.806000
-17.403000 39.514000 0.488000
-15.618000 37.432000 0.318000
-20.475000 38.759000 1.101000
-20.413000 37.404000 0.656000
-17.198000 39.083000 0.812000
-17.429000 40.614000 0.453000
-15.836000 39.542000 0.805000
-19.972000 41.172000 0.765000
-19.245000 36.953000 0.649000
-20.039000 39.319000 0.492000
-20.485000 38.680000 1.250000
-20.477000 38.369000 1.007000
-17.326000 41.168000 0.601000
-15.778000 39.600000 2.706000
-15.885000 39.576000 1.954000
-18.470000 38.460000 0.800000
-18.497000 39.026000 0.800000
-17.474000 36.850000 2.067000
-15.331000 38.449000 0.414000
-15.329000 37.085000 1.513000
-15.310000 40.103000 1.231000
-18.769000 38.899000 0.797000
-16.003000 40.630000 0.266000
-15.499000 37.091000 1.386000
-20.313000 40.317000 0.748000
-20.365000 38.195000 0.692000
-16.118000 36.823000 0.373000
-15.466000 36.995000 0.974000
-15.817000 36.977000 0.185000
-17.083000 40.944000 0.124000
-15.694000 40.172000 2.212000
-15.307000 38.174000 1.576000
-20.029000 37.700000 0.577000
-18.290000 38.732000 0.801000
-19.972000 37.956000 0.499000
-15.803000 40.872000 0.756000
-17.118000 41.167000 0.701000
-17.679000 38.905000 0.806000
-20.425000 37.984000 0.537000
-15.879000 40.639000 0.752000
-18.074000 38.806000 0.803000
-17.756000 38.161000 0.650000
-20.477000 38.372000 1.744000
-15.419000 36.890000 1.320000
-16.222000 41.013000 3.143000
-16.023000 40.674000 3.148000
-16.271000 40.743000 0.769000
-15.528000 36.880000 2.250000
-16.043000 36.821000 0.509000
-19.189000 37.085000 0.489000
-18.028000 38.158000 0.767000
-15.314000 38.535000 1.670000
-16.954000 37.416000 0.227000
-17.020000 37.073000 0.772000
-16.224000 39.569000 1.651000
-15.396000 40.651000 0.268000
-19.200000 41.243000 0.438000
-16.842000 38.972000 0.814000
-17.314000 38.591000 0.814000
-19.390000 41.244000 0.109000
-16.877000 39.467000 2.331000
-20.451000 37.198000 0.842000
-15.753000 39.351000 3.148000
-16.454000 40.963000 0.772000
-16.431000 37.446000 0.454000
-19.668000 41.258000 0.405000
-15.314000 40.679000 0.841000
-16.961000 38.314000 0.510000
-20.471000 39.607000 1.221000
-15.315000 40.060000 1.002000
-15.770000 40.144000 0.036000
-15.439000 39.416000 2.251000
-16.426000 37.427000 0.394000
-17.193000 38.056000 0.834000
-20.097000 40.042000 0.483000
-15.299000 40.656000 1.586000
-15.304000 37.444000 2.078000
-16.951000 38.499000 0.488000
-19.308000 41.244000 0.261000
-16.472000 36.819000 0.465000
-16.135000 40.636000 0.636000
-17.429000 39.729000 0.697000
-15.695000 37.049000 2.246000
-16.737000 37.128000 0.806000
-15.326000 37.293000 1.069000
-16.087000 36.911000 3.139000
-15.317000 40.061000 0.883000
-15.394000 37.409000 2.255000
-15.304000 37.822000 1.792000
-15.381000 37.127000 1.119000
-15.330000 37.519000 0.796000
-18.656000 41.230000 0.162000
-15.763000 38.407000 2.892000
-19.294000 38.898000 3.156000
-20.143000 41.262000 1.058000
-16.579000 37.671000 0.662000
-17.707000 39.402000 0.802000
-15.338000 37.676000 0.485000
-15.762000 39.904000 2.630000
-19.055000 41.232000 2.977000
-15.327000 38.466000 0.894000
-19.429000 41.244000 1.296000
-15.328000 39.553000 0.458000
-16.651000 40.632000 0.635000
-20.475000 38.439000 0.994000
-19.326000 38.836000 3.156000
-16.453000 40.957000 3.151000
-18.194000 39.523000 2.319000
-15.330000 37.475000 0.798000
-17.277000 39.512000 0.809000
-20.247000 40.834000 0.281000
-17.066000 39.486000 0.810000
-20.498000 41.190000 2.036000
-18.252000 36.868000 0.958000
-16.434000 40.631000 0.678000
-16.733000 37.124000 0.799000
-20.254000 40.146000 0.496000
-20.134000 41.255000 0.097000
-16.392000 40.626000 0.319000
-18.835000 39.352000 0.800000
-17.329000 38.864000 0.812000
-20.469000 41.153000 0.894000
-15.325000 38.317000 0.684000
-15.393000 39.416000 1.559000
-17.284000 39.294000 0.810000
-20.292000 38.167000 0.434000
-18.010000 39.219000 2.387000
-20.382000 37.299000 0.746000
-19.892000 41.255000 0.926000
-20.485000 38.839000 1.538000
-17.025000 38.129000 0.694000
-16.966000 38.045000 2.335000
-15.338000 37.425000 0.558000
-15.236000 39.234000 2.173000
-17.287000 39.089000 0.811000
-15.476000 39.480000 0.955000
-16.992000 39.656000 2.322000
-17.436000 40.608000 0.418000
-15.284000 41.062000 2.085000
-16.303000 40.798000 3.154000
-15.778000 39.754000 2.259000
-15.290000 41.030000 1.845000
-18.204000 41.222000 0.453000
-17.869000 39.429000 0.799000
-15.313000 39.672000 1.261000
-16.810000 41.212000 3.154000
-15.774000 40.958000 2.274000
-16.232000 40.627000 0.281000
-15.662000 40.425000 2.206000
-16.910000 39.881000 2.326000
-15.850000 40.888000 0.757000
-20.459000 37.922000 0.818000
-15.375000 37.109000 0.372000
-15.329000 39.434000 2.086000
-15.477000 39.466000 0.507000
-15.289000 39.351000 2.177000
-16.915000 40.685000 0.677000
-18.080000 38.321000 2.439000
-18.437000 41.225000 0.263000
-15.684000 40.812000 0.754000
-15.295000 40.869000 1.696000
-18.022000 39.741000 2.333000
-15.925000 39.492000 1.180000
-16.884000 38.436000 0.786000
-16.520000 37.650000 0.884000
-15.774000 39.706000 2.780000
-20.123000 40.143000 0.106000
-17.589000 39.652000 0.505000
-15.488000 39.829000 0.763000
-19.894000 40.945000 0.614000
-19.375000 38.845000 2.311000
-15.333000 37.684000 0.643000
-15.391000 37.139000 1.115000
-15.583000 39.441000 1.625000
-20.486000 39.568000 2.017000
-16.039000 39.608000 1.881000
-15.330000 37.261000 0.859000
-15.767000 39.221000 2.823000
-16.858000 38.689000 0.777000
-15.385000 39.494000 1.029000
-16.650000 36.995000 0.055000
-20.426000 41.014000 3.143000
-15.757000 39.031000 3.052000
-17.602000 38.822000 0.807000
-15.301000 40.687000 1.478000
-19.870000 40.987000 0.615000
-15.296000 40.076000 1.793000
-15.329000 37.571000 0.837000
-15.298000 38.553000 1.088000
-15.294000 38.535000 0.196000
-18.230000 37.912000 2.330000
-16.814000 39.079000 2.382000
-15.308000 39.837000 1.475000
-16.826000 37.300000 0.833000
-17.328000 38.412000 0.494000
-15.763000 37.676000 2.802000
-20.130000 39.990000 0.613000
-15.312000 40.520000 0.993000
-19.654000 40.958000 0.454000
-15.300000 37.868000 1.915000
-18.031000 38.105000 0.679000
-19.931000 40.281000 0.393000
-15.760000 38.942000 2.999000
-15.768000 41.077000 2.875000
-16.104000 39.612000 1.421000
-16.039000 40.876000 3.143000
-16.088000 40.473000 3.155000
-15.675000 39.477000 0.311000
-19.664000 41.257000 0.386000
-16.694000 39.138000 0.583000
-20.299000 39.005000 0.485000
-19.949000 41.255000 1.054000
-15.316000 39.598000 1.106000
-20.497000 39.872000 1.993000
-15.832000 37.421000 0.184000
-15.295000 40.530000 1.740000
-15.310000 40.249000 1.182000
-15.499000 36.917000 1.563000
-18.848000 38.842000 0.797000
-15.394000 39.785000 0.424000
-20.486000 41.157000 1.355000
-15.292000 39.764000 2.052000
-19.087000 37.065000 0.751000
-19.385000 39.918000 2.321000
-15.788000 36.827000 0.323000
-15.561000 39.426000 0.100000
-15.248000 38.558000 0.727000
-15.615000 40.985000 2.198000
-17.200000 38.577000 0.815000
-18.845000 39.242000 0.799000
-19.297000 37.990000 2.399000
-20.490000 40.141000 1.090000
-16.939000 37.320000 0.787000
-15.256000 39.443000 2.092000
-20.162000 41.258000 1.573000
-20.063000 40.230000 0.465000
-17.757000 38.530000 0.451000
-19.882000 41.269000 0.309000
-15.343000 37.369000 0.453000
-15.476000 39.429000 2.009000
-20.477000 39.734000 1.546000
-19.028000 41.234000 0.124000
-15.328000 37.419000 0.934000
-20.472000 38.690000 0.919000
-15.294000 40.490000 1.837000
-15.318000 37.205000 1.421000
-15.313000 40.315000 1.000000
-15.303000 40.530000 1.434000
-19.330000 38.808000 3.156000
-15.299000 41.076000 1.602000
-20.368000 38.768000 0.636000
-15.317000 38.540000 1.616000
-15.619000 36.820000 0.911000
-16.860000 38.232000 2.337000
-15.826000 37.145000 0.616000
-15.767000 38.707000 2.711000
-16.045000 39.586000 0.820000
-20.386000 39.413000 0.763000
-15.765000 38.899000 2.846000
-19.376000 41.244000 0.138000
-15.312000 39.819000 1.218000
-15.328000 40.636000 0.311000
-15.787000 39.368000 2.400000
-15.328000 38.497000 0.713000
-15.618000 39.447000 1.621000
-15.305000 39.557000 1.752000
-17.127000 40.746000 0.621000
-15.308000 40.831000 1.170000
-15.324000 39.553000 0.721000
-19.652000 40.822000 0.485000
-15.909000 36.820000 0.677000
-18.059000 39.759000 2.328000
-15.905000 40.633000 0.382000
-15.287000 40.833000 2.187000
-17.924000 38.435000 0.804000
-15.251000 38.726000 2.173000
-17.031000 40.800000 0.618000
-15.314000 39.749000 1.140000
-15.322000 40.617000 0.485000
-16.214000 39.535000 0.455000
-18.951000 41.233000 0.111000
-15.761000 39.840000 3.046000
-18.347000 36.874000 0.953000
-19.661000 41.011000 0.452000
-15.314000 37.946000 1.330000
-15.322000 38.514000 1.101000
-20.493000 40.070000 1.251000
-15.333000 38.134000 0.483000
-18.031000 38.851000 0.803000
-15.667000 40.880000 2.201000
-15.793000 39.486000 2.046000
-15.446000 39.419000 1.597000
-16.840000 38.834000 0.733000
-19.403000 40.191000 2.343000
-20.291000 38.605000 0.483000
-19.437000 38.194000 2.320000
-16.924000 38.356000 2.333000
-17.761000 39.611000 0.797000
-16.123000 39.528000 1.633000
-17.008000 37.928000 2.345000
-18.751000 38.957000 0.798000
-19.109000 41.237000 0.245000
-17.806000 39.293000 0.802000
-15.707000 37.441000 0.147000
-17.999000 37.903000 2.331000
-15.315000 37.573000 1.430000
-17.050000 39.865000 2.351000
-15.806000 36.960000 0.576000
-20.128000 41.086000 3.152000
-20.465000 38.146000 0.517000
-15.386000 37.364000 0.176000
-15.949000 39.506000 0.248000
-20.486000 38.815000 1.468000
-17.188000 40.870000 0.465000
-18.030000 38.229000 2.420000
-20.025000 40.802000 0.069000
-15.306000 39.982000 1.455000
-20.371000 38.933000 0.629000
-19.186000 38.868000 0.794000
-15.320000 37.319000 1.307000
-18.032000 38.106000 2.437000
-15.833000 40.723000 3.139000
-17.290000 41.133000 0.463000
-15.985000 39.523000 0.147000
-15.376000 40.887000 2.196000
-17.018000 38.235000 2.349000
-15.656000 39.313000 2.248000
-18.346000 38.581000 0.801000
-15.554000 39.445000 2.090000
-15.754000 37.434000 0.177000
-19.829000 40.803000 0.133000
-15.301000 39.593000 1.865000
-19.930000 41.171000 0.703000
-15.982000 36.816000 0.494000
-16.434000 37.618000 0.970000
-19.426000 38.824000 2.317000
-16.793000 40.635000 0.604000
-15.345000 39.739000 2.210000
-16.035000 36.821000 0.313000
-16.918000 37.272000 0.340000
-16.197000 39.603000 0.761000
-15.772000 40.648000 2.250000
-18.172000 38.937000 2.311000
-16.580000 40.627000 0.485000
-20.016000 40.835000 0.988000
-15.559000 40.630000 0.106000
-20.493000 40.838000 3.148000
-17.099000 40.733000 0.631000
-19.857000 40.886000 0.318000
-15.315000 40.871000 0.769000
-16.346000 40.757000 3.156000
-19.605000 41.248000 1.018000
-15.292000 40.286000 1.887000
-15.700000 39.165000 2.246000
-16.755000 38.819000 0.681000
-15.759000 38.070000 3.080000
-15.339000 37.123000 0.701000
-16.576000 37.984000 3.204000
-20.479000 38.597000 1.983000
-20.498000 40.956000 1.784000
-17.006000 38.528000 2.334000
-17.136000 38.151000 0.537000
-15.291000 39.924000 1.982000
-15.520000 36.987000 1.600000
-16.067000 40.629000 0.273000
-16.125000 39.523000 1.471000
-15.333000 40.788000 0.702000
-15.346000 37.572000 0.247000
-15.236000 39.142000 2.171000
-18.910000 41.234000 0.208000
-15.585000 39.287000 2.248000
-15.761000 40.515000 2.921000
-16.597000 37.482000 0.311000
-15.320000 38.403000 1.113000
-16.413000 37.230000 0.107000
-16.541000 40.629000 0.666000
-17.241000 38.090000 0.684000
-20.304000 40.148000 0.786000
-15.767000 40.770000 2.762000
-15.293000 40.587000 1.879000
-15.326000 38.460000 0.568000
-17.041000 38.640000 2.363000
-16.886000 40.126000 2.321000
-17.013000 38.066000 2.348000
-20.472000 37.115000 0.849000
-16.798000 38.613000 2.379000
-15.764000 38.821000 2.872000
-20.423000 38.005000 0.759000
-15.769000 37.345000 2.626000
-15.496000 39.802000 0.461000
-15.291000 40.039000 1.950000
-15.766000 39.996000 3.020000
-15.414000 39.796000 0.780000
-20.318000 37.238000 0.501000
-15.900000 39.490000 1.496000
-15.782000 40.833000 3.133000
-16.813000 37.257000 0.882000
-20.215000 40.176000 0.161000
-17.498000 40.940000 0.101000
-20.480000 38.542000 1.820000
-19.853000 41.262000 0.193000
-15.619000 39.444000 1.390000
-19.230000 38.978000 0.787000
-15.465000 39.424000 1.757000
-20.495000 40.718000 1.474000
-16.032000 36.821000 0.514000
-15.759000 40.460000 3.008000
-16.771000 37.357000 0.464000
-15.307000 40.597000 1.221000
-15.338000 38.063000 0.350000
-15.390000 39.501000 1.912000
-15.403000 36.938000 1.104000
-20.225000 41.259000 1.711000
-19.852000 41.252000 1.510000
-19.823000 41.265000 0.316000
-15.307000 40.763000 1.201000
-15.328000 40.518000 0.214000
-15.315000 39.871000 1.069000
-15.303000 39.889000 1.617000
-17.837000 39.002000 0.805000
-18.716000 36.875000 0.949000
-15.338000 39.878000 2.213000
-18.277000 41.219000 0.269000
-15.780000 40.355000 3.142000
-15.506000 36.959000 1.250000
-17.242000 41.024000 3.151000
-18.004000 39.479000 0.795000
-17.794000 38.151000 0.631000
-20.160000 40.503000 0.124000
-15.358000 37.272000 2.257000
-15.307000 40.665000 2.191000
-15.295000 39.618000 2.099000
-20.039000 37.887000 0.515000
-15.308000 38.463000 2.217000
-16.266000 40.781000 0.768000
-20.275000 40.961000 0.412000
-15.344000 37.507000 0.341000
-15.769000 40.913000 2.633000
-15.303000 39.429000 1.819000
-20.319000 41.257000 1.650000
-20.360000 39.619000 0.510000
-15.762000 38.875000 2.951000
-20.181000 39.306000 0.466000
-20.157000 40.822000 0.078000
-15.306000 38.137000 1.629000
-20.468000 39.174000 1.069000
-15.323000 38.022000 0.904000
-20.142000 40.752000 0.763000
-19.350000 39.434000 2.328000
-15.240000 38.575000 2.078000
-15.527000 36.999000 1.167000
-15.310000 41.003000 1.061000
-15.525000 39.505000 1.813000
-15.637000 39.485000 0.350000
-16.968000 37.530000 0.680000
-17.310000 40.891000 0.283000
-20.491000 41.070000 1.533000
-19.322000 37.057000 0.519000
-15.767000 40.551000 2.626000
-20.100000 41.126000 1.105000
-19.195000 41.218000 2.036000
-15.307000 38.439000 1.586000
-20.485000 38.757000 1.640000
-18.140000 39.597000 2.319000
-15.423000 41.092000 2.193000
-15.317000 40.580000 0.688000
-18.190000 38.777000 0.802000
-20.486000 39.651000 2.029000
-17.915000 39.144000 0.803000
-15.486000 39.965000 0.686000
-15.744000 39.458000 0.401000
-19.355000 38.413000 2.308000
-16.100000 41.124000 3.135000
-15.761000 37.682000 2.947000
-15.318000 39.555000 1.503000
-15.425000 39.470000 1.138000
-20.011000 40.127000 0.455000
-17.326000 41.114000 3.145000
-15.320000 40.542000 0.524000
-16.772000 39.512000 2.348000
-20.494000 41.139000 1.837000
-16.084000 39.572000 0.453000
-19.219000 38.625000 2.336000
-15.399000 37.118000 1.235000
-16.586000 37.520000 0.956000
-17.009000 39.415000 0.811000
-15.322000 40.525000 0.411000
-18.191000 38.758000 0.802000
-15.355000 39.233000 2.241000
-19.944000 41.253000 1.471000
-15.650000 39.457000 1.878000
-17.325000 39.294000 0.810000
-15.506000 39.763000 0.627000
-15.305000 40.750000 1.305000
-16.423000 40.631000 0.683000
-20.474000 39.002000 0.846000
-15.902000 39.823000 0.436000
-15.675000 37.309000 2.254000
-19.215000 41.243000 0.390000
-15.906000 39.493000 0.420000
-18.331000 39.480000 0.802000
-19.123000 38.947000 0.796000
-15.311000 37.073000 1.821000
-15.621000 39.445000 1.465000
-15.771000 39.513000 2.752000
-20.392000 38.999000 0.710000
-15.820000 36.966000 0.812000
-20.418000 38.615000 0.485000
-20.119000 39.981000 0.618000
-18.567000 38.455000 0.799000
-20.094000 40.495000 0.486000
-15.319000 37.113000 1.441000
-15.299000 39.786000 1.781000
-19.378000 38.632000 2.309000
-20.369000 38.957000 0.621000
-19.312000 38.469000 2.312000
-20.051000 38.183000 0.482000
-15.311000 38.140000 1.412000
-15.768000 41.068000 2.819000
-15.760000 37.433000 3.007000
-20.478000 40.812000 0.742000
-15.339000 37.473000 0.487000
-15.541000 37.519000 2.254000
-19.575000 41.247000 1.248000
-19.003000 38.773000 0.795000
-15.434000 40.206000 0.685000
-16.967000 39.872000 2.320000
-15.919000 39.503000 1.862000
-15.322000 37.921000 1.009000
-17.776000 39.762000 0.500000
-20.002000 36.995000 0.481000
-15.353000 39.418000 1.601000
-18.418000 38.814000 0.800000
-16.836000 38.848000 2.332000
-15.433000 39.408000 0.555000
-19.511000 41.246000 1.060000
-19.229000 37.227000 0.491000
-18.555000 38.544000 0.799000
-15.241000 39.433000 0.752000
-15.336000 37.746000 0.546000
-20.485000 39.525000 1.724000
-15.316000 39.625000 1.118000
-17.693000 39.279000 0.805000
-19.440000 38.739000 3.156000
-19.440000 41.246000 0.726000
-19.972000 37.947000 0.498000
-18.594000 39.299000 0.800000
-15.773000 40.631000 0.172000
-16.795000 37.432000 0.988000
-15.325000 39.397000 0.234000
-20.255000 41.256000 1.318000
-19.981000 38.941000 0.468000
-18.710000 39.284000 0.799000
-19.767000 41.251000 1.337000
-19.614000 41.244000 3.143000
-20.483000 39.853000 0.339000
-18.270000 39.428000 0.802000
-20.315000 40.179000 0.103000
-15.411000 37.156000 0.680000
-15.770000 39.441000 2.741000
-20.125000 41.100000 1.124000
-19.967000 40.052000 0.417000
-15.761000 40.744000 3.114000
-16.716000 37.140000 0.890000
-16.700000 37.593000 0.767000
-15.328000 40.481000 0.196000
-15.556000 37.728000 2.251000
-15.741000 39.461000 0.832000
-15.318000 39.784000 0.917000
-15.261000 38.566000 1.977000
-15.772000 39.469000 2.644000
-15.311000 38.552000 1.026000
-20.486000 38.763000 1.582000
-20.481000 38.836000 1.948000
-15.930000 40.634000 0.480000
-17.426000 40.654000 0.518000
-15.759000 40.078000 2.864000
-20.486000 38.897000 1.650000
-16.858000 38.153000 0.698000
-15.686000 39.472000 0.270000
-17.011000 40.770000 0.719000
-17.543000 37.605000 0.050000
-15.329000 38.083000 0.616000
-15.294000 40.171000 1.828000
-15.305000 39.832000 1.551000
-16.804000 40.651000 0.781000
-20.493000 41.080000 1.631000
-16.073000 40.834000 3.146000
-15.701000 39.543000 1.591000
-20.236000 40.351000 0.489000
-15.319000 38.066000 1.062000
-15.955000 39.575000 1.685000
-15.301000 40.051000 1.611000
-15.672000 39.537000 1.873000
-15.766000 37.085000 2.631000
-19.238000 40.151000 2.377000
-15.808000 36.933000 0.604000
-20.085000 39.465000 0.495000
-20.485000 39.350000 1.638000
-15.331000 36.862000 0.995000
-20.447000 39.548000 0.830000
-15.251000 38.547000 2.173000
-15.823000 37.085000 0.789000
-20.382000 41.261000 1.056000
-15.310000 37.811000 1.549000
-18.961000 36.878000 0.941000
-15.452000 37.196000 0.693000
-15.590000 37.430000 0.364000
-15.455000 39.496000 1.550000
-19.459000 38.797000 2.318000
-16.815000 39.026000 0.509000
-15.315000 37.907000 1.309000
-20.498000 40.386000 1.468000
-19.591000 40.832000 0.085000
-15.310000 36.850000 1.906000
-19.210000 38.818000 2.350000
-15.368000 40.068000 2.209000
-20.468000 39.352000 1.125000
-15.452000 38.663000 2.249000
-15.380000 40.185000 0.772000
-16.469000 37.538000 0.506000
-19.785000 40.991000 0.068000
-15.762000 39.689000 2.971000
-17.271000 40.959000 3.153000
-15.286000 40.890000 2.068000
-18.794000 41.235000 0.663000
-18.838000 38.735000 0.797000
-15.312000 40.762000 0.985000
-16.940000 38.096000 0.519000
-15.790000 39.349000 2.263000
-15.505000 37.903000 2.250000
-15.344000 38.398000 0.129000
-20.495000 40.845000 1.499000
-16.249000 40.624000 0.119000
-15.825000 37.279000 0.648000
-19.040000 41.221000 3.148000
-15.315000 39.601000 1.213000
-16.185000 39.601000 1.185000
-20.222000 37.133000 0.492000
-20.102000 41.256000 1.174000
-19.268000 36.941000 0.606000
-16.951000 39.732000 2.325000
-15.764000 40.463000 2.771000
-15.764000 38.314000 2.697000
-15.895000 39.497000 1.779000
-20.018000 40.794000 0.748000
-16.091000 39.528000 1.796000
-15.305000 37.755000 1.763000
-18.056000 40.214000 2.333000
-19.788000 40.849000 0.601000
-15.414000 40.427000 0.028000
-17.111000 38.170000 0.532000
-16.090000 39.528000 1.802000
-17.277000 36.849000 2.107000
-17.427000 38.992000 0.810000
-20.457000 37.306000 0.367000
-16.205000 40.910000 0.765000
-15.317000 37.350000 1.418000
-20.486000 39.493000 1.951000
-20.395000 37.902000 0.664000
-15.293000 40.365000 2.189000
-15.319000 39.547000 0.953000
-19.005000 41.240000 0.700000
-16.446000 36.819000 0.417000
-18.212000 38.806000 0.802000
-15.414000 39.576000 2.208000
-16.755000 38.941000 0.540000
-15.325000 38.469000 1.023000
-20.485000 38.549000 1.343000
-18.909000 39.125000 0.798000
-20.476000 38.445000 2.055000
-18.637000 39.023000 0.799000
-15.293000 40.389000 1.848000
-15.788000 39.424000 2.295000
-15.296000 40.259000 1.762000
-20.491000 41.202000 1.697000
-15.859000 37.066000 0.211000
-16.430000 36.822000 0.289000
-15.305000 37.446000 2.092000
-15.288000 40.283000 2.115000
-15.760000 40.572000 3.102000
-15.308000 38.192000 1.561000
-19.750000 41.256000 0.206000
-15.312000 40.687000 0.961000
-15.328000 37.417000 0.913000
-20.483000 39.058000 1.950000
-19.769000 40.634000 0.608000
-15.330000 37.625000 0.752000
-15.389000 40.026000 0.804000
-20.170000 40.085000 0.115000
-15.761000 37.523000 2.924000
-17.751000 39.212000 0.805000
-15.419000 36.967000 1.029000
-15.764000 38.378000 2.744000
-19.201000 39.042000 2.367000
-15.753000 39.091000 3.133000
-15.326000 37.709000 0.924000
-15.764000 40.498000 2.780000
-15.361000 37.022000 0.343000
-15.980000 39.560000 0.922000
-15.534000 37.578000 0.165000
-15.315000 40.655000 0.812000
-15.763000 38.235000 2.794000
-15.720000 39.312000 2.247000
-20.303000 40.280000 0.697000
-17.996000 38.004000 2.360000
-17.175000 40.768000 0.471000
-15.446000 37.138000 1.323000
-17.124000 38.588000 0.816000
-17.229000 41.055000 3.155000
-16.077000 39.596000 1.691000
-17.391000 40.863000 0.271000
-20.480000 39.343000 1.481000
-15.720000 38.560000 2.246000
-19.085000 41.240000 0.453000
-15.310000 37.830000 1.556000
-15.298000 38.366000 1.908000
-16.443000 37.500000 0.576000
-15.292000 39.833000 1.981000
-20.486000 40.886000 1.132000
-16.177000 39.633000 1.713000
-15.760000 37.855000 2.959000
-15.307000 37.439000 1.784000
-15.757000 38.816000 3.083000
-18.479000 36.885000 0.935000
-15.885000 40.639000 0.717000
-16.597000 41.062000 3.151000
-17.001000 39.811000 2.322000
-15.651000 39.475000 0.185000
-15.764000 40.378000 2.709000
-19.230000 41.242000 0.840000
-18.324000 36.880000 0.894000
-15.372000 39.481000 0.464000
-18.694000 39.305000 0.799000
-20.407000 38.738000 0.499000
-15.762000 37.622000 2.854000
-18.034000 39.064000 2.396000
-16.855000 39.008000 0.747000
-16.988000 38.289000 0.504000
-16.439000 40.630000 0.600000
-16.064000 39.510000 0.792000
-16.063000 41.127000 3.133000
-16.804000 38.649000 2.391000
-15.299000 40.825000 1.578000
-19.216000 37.948000 2.375000
-15.293000 40.618000 1.886000
-18.232000 36.962000 0.057000
-15.336000 37.417000 0.599000
-19.679000 40.680000 0.504000
-15.362000 39.405000 0.773000
-15.709000 39.779000 0.494000
-16.700000 39.038000 0.441000
-17.999000 39.365000 2.351000
-15.364000 39.489000 0.658000
-15.934000 39.494000 0.421000
-19.219000 37.018000 0.602000
-15.759000 38.025000 3.033000
-15.763000 39.189000 2.946000
-15.385000 41.122000 2.191000
-15.703000 39.458000 1.416000
-15.706000 40.634000 0.308000
-16.740000 39.306000 0.667000
-15.769000 39.392000 2.816000
-15.338000 37.065000 1.519000
-20.467000 39.098000 0.951000
-15.289000 41.017000 1.854000
-20.486000 40.788000 1.127000
-15.304000 38.510000 1.782000
-20.015000 37.066000 0.517000
-15.719000 39.903000 0.474000
-20.358000 39.511000 0.633000
-19.260000 39.936000 2.333000
-15.309000 37.309000 1.749000
-16.696000 39.036000 0.571000
-15.340000 39.519000 0.561000
-15.336000 37.345000 0.615000
-15.384000 37.145000 1.069000
-15.303000 40.632000 1.401000
-17.866000 38.079000 0.800000
-15.986000 39.515000 1.886000
-19.548000 41.251000 0.523000
-17.175000 38.239000 0.514000
-20.224000 41.256000 1.273000
-20.454000 40.442000 0.072000
-15.485000 36.914000 1.623000
-15.386000 39.409000 1.025000
-20.043000 41.270000 0.853000
-15.766000 38.864000 2.780000
-19.578000 41.248000 0.733000
-16.521000 37.580000 0.947000
-15.587000 40.322000 0.028000
-17.809000 38.150000 0.636000
-20.485000 39.378000 1.715000
-16.989000 40.220000 2.388000
-15.305000 37.399000 2.115000
-16.094000 39.610000 1.379000
-20.485000 39.370000 1.675000
-16.508000 40.930000 3.154000
-15.307000 39.571000 1.647000
-17.158000 39.154000 0.812000
-18.254000 40.139000 2.364000
-17.491000 39.777000 0.493000
-15.300000 40.584000 1.539000
-20.472000 38.633000 0.928000
-15.344000 38.258000 0.148000
-16.729000 39.101000 0.402000
-16.449000 40.923000 0.771000
-15.793000 37.336000 0.786000
-17.628000 38.769000 0.807000
-15.828000 37.143000 0.667000
-16.178000 39.527000 1.243000
-15.308000 37.467000 1.733000
-17.796000 36.907000 0.099000
-17.755000 38.500000 0.807000
-20.118000 40.571000 0.595000
-15.446000 40.637000 0.303000
-17.081000 38.290000 0.509000
-18.133000 39.468000 2.318000
-15.765000 37.140000 2.801000
-20.390000 36.917000 0.107000
-20.500000 40.881000 1.805000
-15.896000 39.489000 0.924000
-17.914000 38.465000 0.804000
-19.108000 39.088000 0.796000
-19.436000 41.241000 3.069000
-15.547000 40.670000 2.201000
-15.673000 37.799000 2.249000
-20.328000 40.353000 0.622000
-16.147000 40.629000 0.300000
-18.220000 36.882000 0.934000
-18.260000 39.228000 0.802000
-17.435000 38.538000 0.812000
-20.478000 41.021000 1.021000
-16.107000 40.751000 3.149000
-15.317000 38.015000 1.179000
-20.082000 40.730000 0.797000
-20.294000 40.191000 0.674000
-20.378000 37.714000 0.577000
-15.312000 39.765000 1.292000
-20.475000 41.078000 1.002000
-20.363000 38.686000 0.489000
-20.444000 37.263000 0.561000
-17.997000 38.707000 0.804000
-15.763000 38.159000 2.761000
-16.895000 40.874000 0.601000
-15.795000 40.385000 3.143000
-16.753000 38.969000 0.743000
-15.761000 37.954000 3.130000
-19.982000 37.044000 0.496000
-17.284000 38.916000 0.812000
-15.464000 37.395000 0.309000
-20.485000 39.181000 1.647000
-16.375000 36.820000 0.601000
-16.336000 36.831000 0.111000
-17.229000 38.734000 0.814000
-20.449000 38.012000 0.796000
-16.856000 38.725000 0.773000
-18.849000 41.235000 0.499000
-15.717000 39.452000 0.306000
-20.157000 36.897000 0.447000
-15.321000 39.411000 1.162000
-19.397000 39.138000 2.314000
-15.766000 39.157000 2.851000
-15.329000 38.523000 0.119000
-15.359000 39.506000 0.152000
-15.761000 37.055000 2.915000
-15.288000 40.425000 2.157000
-18.352000 38.584000 0.801000
-15.890000 40.024000 0.472000
-16.078000 40.412000 0.039000
-19.315000 37.263000 0.504000
-18.558000 39.605000 0.802000
-15.855000 36.812000 0.133000
-15.312000 40.355000 1.060000
-15.288000 40.830000 2.022000
-16.744000 39.192000 0.521000
-16.425000 37.897000 3.202000
-15.311000 37.158000 1.752000
-15.326000 37.865000 0.852000
-15.830000 39.487000 1.807000
-15.453000 40.057000 0.532000
-15.683000 38.261000 2.251000
-15.998000 40.632000 3.148000
-20.227000 41.021000 3.151000
-15.570000 39.067000 2.246000
-15.301000 39.766000 1.713000
-15.960000 39.528000 0.354000
-15.719000 39.874000 0.042000
-20.256000 40.245000 0.497000
-19.037000 37.143000 0.434000
-18.896000 41.238000 0.789000
-19.520000 37.249000 0.420000
-19.904000 41.092000 0.753000
-19.335000 41.238000 3.092000
-17.416000 40.966000 0.489000
-16.676000 37.539000 0.979000
-16.882000 38.068000 0.783000
-18.150000 38.451000 0.803000
-16.892000 38.309000 2.333000
-19.329000 39.142000 2.311000
-20.483000 39.352000 1.579000
-15.684000 39.539000 1.498000
-15.327000 38.440000 0.567000
-15.988000 39.506000 0.477000
-18.240000 39.599000 2.367000
-15.306000 37.341000 1.854000
-15.295000 40.598000 1.782000
-17.190000 40.940000 0.468000
-17.759000 39.334000 0.802000
-15.763000 37.852000 2.714000
-18.617000 38.717000 0.799000
-19.692000 40.842000 0.589000
-15.494000 37.245000 0.373000
-15.601000 40.636000 0.386000
-18.786000 39.148000 0.798000
-17.323000 38.453000 0.470000
-20.442000 41.064000 3.140000
-19.789000 41.056000 0.122000
-19.202000 38.206000 2.377000
-15.523000 38.491000 2.250000
-16.684000 39.101000 0.597000
-20.492000 40.457000 1.238000
-20.209000 40.189000 0.164000
-19.891000 41.253000 1.370000
-15.763000 38.902000 2.934000
-15.394000 39.422000 2.161000
-15.361000 39.426000 1.929000
-19.883000 41.253000 1.303000
-18.365000 41.227000 0.711000
-15.589000 37.633000 2.253000
-15.761000 39.119000 2.982000
-20.132000 41.257000 1.621000
-15.767000 40.784000 2.736000
-19.422000 38.827000 2.317000
-15.370000 40.083000 0.540000
-15.823000 37.362000 0.429000
-15.783000 38.770000 2.295000
-15.326000 38.384000 0.628000
-16.194000 39.547000 1.650000
-15.500000 39.419000 1.014000
-15.325000 37.620000 1.010000
-18.254000 38.912000 0.801000
-15.759000 40.112000 2.858000
-17.037000 38.803000 0.815000
-15.581000 39.487000 0.565000
-15.766000 37.145000 2.715000
-15.359000 37.361000 0.281000
-17.215000 38.435000 0.518000
-15.763000 39.022000 2.930000
-19.977000 39.677000 0.512000
-16.125000 39.605000 2.076000
-19.851000 40.886000 0.303000
-19.207000 38.281000 2.353000
-20.483000 39.858000 1.552000
-17.576000 39.483000 0.496000
-19.971000 40.365000 0.075000
-16.167000 39.603000 0.772000
-15.758000 36.917000 2.953000
-15.305000 40.097000 1.459000
-20.147000 37.287000 0.495000
-15.310000 36.854000 1.783000
-20.419000 37.914000 0.774000
-17.692000 38.186000 0.512000
-15.434000 37.653000 0.156000
-15.318000 40.609000 0.654000
-15.310000 40.874000 1.079000
-16.861000 38.559000 0.816000
-17.689000 39.397000 0.803000
-18.328000 39.095000 0.801000
-20.105000 41.251000 0.074000
-16.711000 39.161000 0.798000
-20.299000 37.358000 0.504000
-16.855000 39.230000 0.740000
-17.236000 39.205000 0.811000
-17.175000 40.883000 0.103000
-15.755000 39.350000 3.099000
-15.755000 39.678000 3.157000
-19.419000 39.801000 2.337000
-16.736000 38.915000 0.781000
-17.986000 39.124000 0.802000
-15.313000 39.727000 1.205000
-15.515000 38.270000 2.251000
-17.068000 40.943000 0.080000
-15.308000 37.662000 2.212000
-15.354000 39.502000 0.273000
-15.320000 39.654000 0.858000
-15.318000 39.829000 0.903000
-19.243000 39.308000 2.344000
-15.850000 40.452000 0.029000
-15.441000 37.619000 0.158000
-16.958000 39.238000 0.812000
-15.976000 41.020000 3.136000
-16.671000 39.134000 0.798000
-15.441000 39.468000 1.158000
-15.660000 39.827000 0.044000
-17.051000 37.194000 0.783000
-16.056000 36.822000 0.612000
-15.765000 38.557000 2.774000
-20.296000 37.412000 0.522000
-15.342000 37.528000 0.398000
-20.087000 38.226000 0.520000
-20.495000 40.251000 1.331000
-20.481000 38.542000 1.779000
-20.480000 38.792000 1.969000
-15.290000 40.389000 2.033000
-16.694000 39.170000 0.426000
-15.299000 40.660000 1.569000
-20.169000 39.540000 0.488000
-17.703000 39.782000 0.760000
-15.542000 38.543000 2.250000
-15.609000 40.586000 2.204000
-16.885000 40.880000 0.461000
-15.824000 37.128000 0.589000
-20.479000 40.830000 0.799000
-15.844000 39.482000 1.371000
-16.318000 36.821000 0.520000
-20.185000 40.153000 0.136000
-20.198000 40.316000 0.491000
-15.806000 37.002000 0.547000
-15.963000 39.563000 0.550000
-15.341000 40.035000 2.210000
-19.565000 41.247000 1.112000
-16.955000 38.748000 0.816000
-16.857000 39.226000 0.510000
-20.303000 38.953000 0.499000
-15.340000 38.333000 0.211000
-15.751000 39.507000 0.382000
-16.223000 39.569000 1.281000
-17.310000 38.117000 0.438000
-16.212000 40.510000 3.157000
-17.143000 40.797000 0.077000
-15.385000 37.296000 0.247000
-15.318000 40.600000 0.632000
-20.484000 39.227000 1.587000
-15.453000 37.841000 2.249000
-16.409000 37.558000 1.032000
-15.622000 39.806000 2.217000
-16.814000 38.111000 2.389000
-15.884000 36.814000 0.521000
-15.374000 37.048000 2.254000
-15.423000 39.979000 2.214000
-18.079000 40.184000 2.331000
-19.671000 41.072000 0.598000
-15.728000 39.464000 1.578000
-15.954000 40.740000 3.143000
-16.430000 40.630000 0.624000
-18.621000 41.229000 0.194000
-16.149000 37.419000 0.938000
-18.744000 36.894000 0.918000
-20.260000 40.067000 0.495000
-20.132000 38.658000 0.511000
-15.766000 39.153000 2.874000
-16.791000 40.635000 0.414000
-19.983000 37.144000 0.434000
-17.835000 38.131000 0.675000
-15.696000 40.974000 0.749000
-15.353000 37.106000 0.554000
-15.347000 37.946000 0.112000
-17.899000 39.105000 0.804000
-17.605000 39.480000 0.803000
-19.992000 39.342000 0.443000
-20.467000 41.124000 0.673000
-15.828000 39.486000 1.789000
-20.429000 36.990000 0.767000
-15.759000 38.120000 3.042000
-15.787000 36.904000 0.336000
-20.251000 41.256000 1.298000
-20.294000 37.243000 0.499000
-15.823000 37.208000 0.525000
-15.531000 37.831000 2.250000
-15.315000 37.523000 1.449000
-17.962000 38.494000 0.804000
-15.304000 41.038000 1.363000
-17.838000 41.188000 0.892000
-15.774000 39.687000 2.770000
-20.496000 40.737000 1.494000
-20.016000 39.997000 0.077000
-15.343000 38.283000 0.159000
-15.332000 39.406000 0.883000
-15.416000 39.496000 1.792000
-19.971000 41.254000 1.215000
-18.160000 39.746000 2.319000
-15.289000 40.652000 2.110000
-16.935000 37.439000 0.158000
-16.591000 37.645000 0.685000
-15.766000 40.513000 2.681000
-15.764000 39.824000 2.597000
-19.799000 40.746000 0.082000
-15.296000 39.680000 1.989000
-18.448000 38.754000 0.800000
-15.362000 37.256000 0.332000
-20.487000 40.526000 1.078000
-15.733000 40.793000 0.756000
-15.759000 40.451000 2.987000
-20.501000 41.160000 2.115000
-17.349000 39.454000 0.497000
-15.828000 40.637000 0.658000
-19.886000 41.085000 0.688000
-19.214000 37.018000 0.592000
-18.011000 39.176000 2.388000
-17.636000 38.203000 0.680000
-16.974000 40.930000 0.084000
